ply
format ascii 1.0
element vertex 732
property float x
property float y
property float z
property uchar red
property uchar green
property uchar blue
end_header
147.4025004246241 1.1276401504206635 0.787330714636397 240 255 0
147.69908493252072 1.1299090440834818 0.39445744053213616 240 255 0
147.99566944041734 1.1321779377463 0 240 255 0
0 0 0 141 255 0
0.24780754198376267 0.018498058196087276 0.25050750012229966 141 255 0
0.49561508396752535 0.03699611639217455 0.5000089460272408 141 255 0
0.7434226259512882 0.055494174588261835 0.7485043377148232 141 255 0
0.9912301679350507 0.0739922327843491 0.9959936751850469 141 255 0
1.2390377099188135 0.09249029098043639 1.242476958437912 141 255 0
1.4868452519025763 0.11098834917652367 1.4879541874734188 141 255 0
1.7346527938863388 0.12948640737261094 1.7324253622915666 141 255 0
1.9824603358701014 0.1479844655686982 1.9758904828923558 141 255 0
2.2302678778538643 0.16648252376478553 2.2183495492757865 141 255 0
2.478075419837627 0.18498058196087278 2.4598025614418586 141 255 0
2.7258829618213896 0.20347864015696007 2.7002495193905722 141 255 0
2.9736905038051527 0.22197669835304734 2.9396904231219265 141 255 0
3.221498045788915 0.2404747565491346 3.178125272635923 141 255 0
3.4693055877726775 0.2589728147452219 3.4155540679325602 141 255 0
3.7171131297564397 0.2774708729413092 3.6519768090118387 141 255 0
3.964920671740203 0.2959689311373964 3.887393495873759 141 255 0
4.212728213723966 0.3144669893334837 4.121804128518321 141 255 0
4.4605357557077285 0.33296504752957107 4.355208706945524 141 255 0
4.708343297691491 0.3514631057256583 4.587607231155369 141 255 0
4.956150839675254 0.36996116392174555 4.818999701147853 141 255 0
5.2039583816590165 0.38845922211783285 5.049386116922981 141 255 0
5.451765923642779 0.40695728031392014 5.278766478480749 141 255 0
5.699573465626542 0.4254553385100074 5.507140785821159 141 255 0
5.947381007610305 0.4439533967060947 5.73450903894421 141 255 0
6.195188549594067 0.4624514549021819 5.960871237849903 141 255 0
6.44299609157783 0.4809495130982692 6.186227382538237 141 255 0
6.690803633561593 0.49944757129435646 6.410577473009212 141 255 0
6.938611175545355 0.5179456294904438 6.633921509262828 141 255 0
7.186418717529118 0.5364436876865311 6.856259491299086 141 255 0
7.434226259512879 0.5549417458826184 7.077591419117986 141 255 0
7.682033801496643 0.5734398040787057 7.297917292719527 141 255 0
7.929841343480406 0.5919378622747928 7.517237112103707 141 255 0
8.177648885464167 0.6104359204708801 7.735550877270532 141 255 0
8.425456427447932 0.6289339786669674 7.952858588219997 141 255 0
8.673263969431693 0.6474320368630547 8.169160244952103 141 255 0
8.921071511415457 0.6659300950591421 8.38445584746685 141 255 0
9.16887905339922 0.6844281532552293 8.59874539576424 141 255 0
9.416686595382982 0.7029262114513166 8.812028889844271 141 255 0
9.664494137366743 0.7214242696474038 9.02430632970694 141 255 0
9.912301679350508 0.7399223278434911 9.235577715352253 141 255 0
10.16010922133427 0.7584203860395784 9.445843046780208 141 255 0
10.407916763318033 0.7769184442356657 9.655102323990805 141 255 0
10.655724305301796 0.795416502431753 9.863355546984042 141 255 0
10.903531847285558 0.8139145606278403 10.07060271575992 141 255 0
11.151339389269323 0.8324126188239276 10.276843830318441 141 255 0
11.399146931253084 0.8509106770200148 10.4820788906596 141 255 0
11.646954473236846 0.869408735216102 10.686307896783402 141 255 0
11.89476201522061 0.8879067934121894 10.889530848689848 141 255 0
12.14256955720437 0.9064048516082766 11.091747746378932 141 255 0
12.390377099188134 0.9249029098043638 11.29295858985066 141 255 0
12.638184641171899 0.9434009680004514 11.49316337910503 141 255 0
12.88599218315566 0.9618990261965384 11.692362114142037 141 255 0
13.133799725139422 0.9803970843926256 11.890554794961687 141 255 0
13.381607267123186 0.9988951425887129 12.08774142156398 141 255 0
13.62941480910695 1.0173932007848003 12.283921993948914 141 255 0
13.87722235109071 1.0358912589808875 12.479096512116488 141 255 0
14.125029893074474 1.054389317176975 12.673264976066704 141 255 0
14.372837435058235 1.0728873753730621 12.866427385799561 141 255 0
14.620644977041998 1.0913854335691493 13.05858374131506 141 255 0
14.868452519025759 1.1098834917652367 13.2497340426132 141 255 0
15.116260061009525 1.128381549961324 13.439878289693985 141 255 0
15.364067602993286 1.1468796081574113 13.629016482557407 141 255 0
15.611875144977047 1.1653776663534985 13.817148621203469 141 255 0
15.859682686960811 1.1838757245495857 14.004274705632174 141 255 0
16.107490228944574 1.2023737827456729 14.19039473584352 141 255 0
16.355297770928335 1.2208718409417603 14.375508711837512 141 255 0
16.6031053129121 1.2393698991378477 14.559616633614144 141 255 0
16.850912854895864 1.2578679573339349 14.742718501173414 141 255 0
17.098720396879624 1.2763660155300223 14.924814314515325 141 255 0
17.346527938863385 1.2948640737261095 15.105904073639879 141 255 0
17.594335480847153 1.3133621319221966 15.285987778547076 141 255 0
17.842143022830914 1.3318601901182843 15.465065429236912 141 255 0
18.089950564814675 1.3503582483143715 15.64313702570939 141 255 0
18.33775810679844 1.3688563065104586 15.820202567964511 141 255 0
18.585565648782204 1.387354364706546 15.996262056002273 141 255 0
18.833373190765965 1.4058524229026332 16.171315489822675 141 255 0
19.081180732749726 1.4243504810987202 16.345362869425713 141 255 0
19.328988274733486 1.4428485392948076 16.5184041948114 141 255 0
19.57679581671725 1.461346597490895 16.69043946597973 141 255 0
19.824603358701015 1.4798446556869822 16.861468682930695 141 255 0
20.072410900684776 1.4983427138830696 17.031491845664306 141 255 0
20.32021844266854 1.5168407720791568 17.200508954180556 141 255 0
20.568025984652305 1.535338830275244 17.368520008479447 141 255 0
20.815833526636066 1.5538368884713314 17.53552500856098 141 255 0
21.063641068619827 1.5723349466674186 17.701523954425156 141 255 0
21.31144861060359 1.590833004863506 17.866516846071974 141 255 0
21.559256152587356 1.6093310630595932 18.03050368350143 141 255 0
21.807063694571116 1.6278291212556806 18.193484466713528 141 255 0
22.05487123655488 1.6463271794517678 18.355459195708267 141 255 0
22.302678778538645 1.6648252376478552 18.51642787048565 141 255 0
22.550486320522403 1.6833232958439421 18.676390491045673 141 255 0
22.798293862506167 1.7018213540400295 18.835347057388333 141 255 0
23.046101404489924 1.7203194122361167 18.99329756951364 141 255 0
23.293908946473692 1.738817470432204 19.150242027421584 141 255 0
23.541716488457457 1.7573155286282913 19.306180431112175 141 255 0
23.78952403044122 1.7758135868243787 19.461112780585403 141 255 0
24.03733157242498 1.794311645020466 19.615039075841274 141 255 0
24.28513911440874 1.812809703216553 19.767959316879782 141 255 0
24.532946656392504 1.8313077614126405 19.91987350370094 141 255 0
24.78075419837627 1.8498058196087277 20.070781636304737 141 255 0
25.028561740360033 1.868303877804815 20.220683714691173 141 255 0
25.276369282343797 1.8868019360009027 20.369579738860253 141 255 0
25.524176824327558 1.90529999419699 20.517469708811973 141 255 0
25.77198436631132 1.9237980523930769 20.66435362454633 141 255 0
26.01979190829508 1.9422961105891638 20.81023148606333 141 255 0
26.267599450278844 1.9607941687852513 20.955103293362974 141 255 0
26.51540699226261 1.9792922269813387 21.09896904644526 141 255 0
26.763214534246373 1.9977902851774259 21.241828745310187 141 255 0
27.01102207623013 2.0162883433735135 21.383682389957755 141 255 0
27.2588296182139 2.0347864015696007 21.52452998038796 141 255 0
27.506637160197656 2.053284459765688 21.66437151660081 141 255 0
27.75444470218142 2.071782517961775 21.803206998596302 141 255 0
28.002252244165184 2.0902805761578627 21.941036426374435 141 255 0
28.25005978614895 2.10877863435395 22.077859799935208 141 255 0
28.49786732813271 2.127276692550037 22.21367711927863 141 255 0
28.74567487011647 2.1457747507461242 22.348488384404682 141 255 0
28.993482412100235 2.1642728089422114 22.48229359531338 141 255 0
29.241289954083996 2.1827708671382986 22.615092752004717 141 255 0
29.48909749606776 2.201268925334386 22.7468858544787 141 255 0
29.736905038051518 2.2197669835304734 22.87767290273532 141 255 0
29.984712580035286 2.2382650417265606 23.007453896774585 141 255 0
30.23252012201905 2.256763099922648 23.136228836596494 141 255 0
30.480327664002807 2.275261158118735 23.263997722201037 141 255 0
30.72813520598657 2.2937592163148226 23.390760553588226 141 255 0
30.975942747970333 2.3122572745109093 23.516517330758052 141 255 0
31.223750289954094 2.330755332706997 23.641268053710522 141 255 0
31.471557831937858 2.349253390903084 23.765012722445636 141 255 0
31.719365373921622 2.3677514490991713 23.887751336963387 141 255 0
31.967172915905383 2.3862495072952585 24.009483897263785 141 255 0
32.21498045788915 2.4047475654913457 24.130210403346815 141 255 0
32.46278799987291 2.4232456236874333 24.249930855212497 141 255 0
32.71059554185667 2.4417436818835205 24.368645252860816 141 255 0
32.95840308384044 2.4602417400796077 24.486353596291778 141 255 0
33.2062106258242 2.4787397982756953 24.603055885505384 141 255 0
33.45401816780796 2.4972378564717825 24.718752120501623 141 255 0
33.70182570979173 2.5157359146678697 24.833442301280506 141 255 0
33.94963325177549 2.534233972863957 24.94712642784203 141 255 0
34.19744079375925 2.5527320310600445 25.059804500186196 141 255 0
34.44524833574302 2.5712300892561317 25.171476518313007 141 255 0
34.69305587772677 2.589728147452219 25.282142482222454 141 255 0
34.94086341971054 2.608226205648306 25.391802391914545 141 255 0
35.18867096169431 2.6267242638443933 25.50045624738928 141 255 0
35.43647850367807 2.645222322040481 25.60810404864666 141 255 0
35.68428604566183 2.6637203802365685 25.714745795686667 141 255 0
35.93209358764559 2.6822184384326553 25.820381488509327 141 255 0
36.17990112962935 2.700716496628743 25.925011127114622 141 255 0
36.42770867161312 2.7192145548248297 26.028634711502562 141 255 0
36.67551621359688 2.7377126130209173 26.131252241673145 141 255 0
36.92332375558065 2.756210671217005 26.232863717626365 141 255 0
37.17113129756441 2.774708729413092 26.333469139362233 141 255 0
37.41893883954817 2.7932067876091793 26.433068506880737 141 255 0
37.66674638153193 2.8117048458052665 26.53166182018188 141 255 0
37.91455392351569 2.8302029040013537 26.62924907926567 141 255 0
38.16236146549945 2.8487009621974404 26.725830284132094 141 255 0
38.41016900748321 2.867199020393528 26.821405434781166 141 255 0
38.65797654946697 2.885697078589615 26.915974531212875 141 255 0
38.90578409145074 2.9041951367857024 27.009537573427227 141 255 0
39.1535916334345 2.92269319498179 27.102094561424224 141 255 0
39.40139917541826 2.9411912531778768 27.193645495203857 141 255 0
39.64920671740203 2.9596893113739644 27.284190374766137 141 255 0
39.89701425938579 2.9781873695700516 27.373729200111057 141 255 0
40.14482180136955 2.996685427766139 27.46226197123862 141 255 0
40.39262934335332 3.0151834859622264 27.54978868814882 141 255 0
40.64043688533708 3.0336815441583136 27.63630935084166 141 255 0
40.88824442732084 3.052179602354401 27.72182395931714 141 255 0
41.13605196930461 3.070677660550488 27.806332513575263 141 255 0
41.383859511288364 3.0891757187465756 27.889835013616036 141 255 0
41.63166705327213 3.107673776942663 27.972331459439445 141 255 0
41.87947459525589 3.12617183513875 28.05382185104549 141 255 0
42.12728213723965 3.144669893334837 28.13430618843418 141 255 0
42.37508967922342 3.1631679515309243 28.213784471605514 141 255 0
42.62289722120718 3.181666009727012 28.29225670055949 141 255 0
42.87070476319094 3.200164067923099 28.3697228752961 141 255 0
43.11851230517471 3.2186621261191863 28.44618299581536 141 255 0
43.36631984715847 3.2371601843152735 28.521637062117257 141 255 0
43.61412738914223 3.255658242511361 28.596085074201795 141 255 0
43.861934931126 3.2741563007074483 28.669527032068977 141 255 0
44.10974247310976 3.2926543589035355 28.741962935718803 141 255 0
44.35755001509352 3.3111524170996236 28.81339278515126 141 255 0
44.60535755707729 3.3296504752957103 28.883816580366364 141 255 0
44.853165099061044 3.348148533491797 28.95323432136411 141 255 0
45.100972641044805 3.3666465916878843 29.0216460081445 141 255 0
45.34878018302857 3.385144649883972 29.08905164070752 141 255 0
45.596587725012334 3.403642708080059 29.155451219053194 141 255 0
45.8443952669961 3.4221407662761463 29.220844743181505 141 255 0
46.09220280897985 3.4406388244722335 29.285232213092463 141 255 0
46.340010350963624 3.4591368826683206 29.348613628786048 141 255 0
46.587817892947385 3.477634940864408 29.410988990262283 141 255 0
46.83562543493114 3.4961329990604955 29.472358297521165 141 255 0
47.083432976914914 3.5146310572565826 29.53272155056268 141 255 0
47.331240518898674 3.53312911545267 29.592078749386847 141 255 0
47.57904806088244 3.5516271736487575 29.65042989399364 141 255 0
47.8268556028662 3.5701252318448446 29.707774984383082 141 255 0
48.07466314484996 3.588623290040932 29.764114020555166 141 255 0
48.32247068683373 3.60712134823702 29.819447002509897 141 255 0
48.57027822881748 3.625619406433106 29.873773930247253 141 255 0
48.81808577080125 3.6441174646291934 29.927094803767265 141 255 0
49.06589331278501 3.662615522825281 29.979409623069916 141 255 0
49.313700854768776 3.681113581021368 30.030718388155208 141 255 0
49.56150839675254 3.6996116392174554 30.08102109902314 141 255 0
49.8093159387363 3.7181096974135435 30.13031775567371 141 255 0
50.057123480720065 3.73660775560963 30.178608358106924 141 255 0
50.304931022703826 3.7551058138057174 30.225892906322784 141 255 0
50.552738564687594 3.7736038720018055 30.27217140032128 141 255 0
50.800546106671355 3.7921019301978927 30.317443840102417 141 255 0
51.048353648655116 3.81059998839398 30.3617102256662 141 255 0
51.29616119063888 3.829098046590066 30.404970557012614 141 255 0
51.54396873262264 3.8475961047861538 30.447224834141682 141 255 0
51.791776274606406 3.866094162982241 30.488473057053387 141 255 0
52.03958381659016 3.8845922211783277 30.528715225747728 141 255 0
52.28739135857391 3.9030902793744153 30.567951340224717 141 255 0
52.53519890055769 3.9215883375705025 30.606181400484346 141 255 0
52.78300644254144 3.9400863957665897 30.643405406526607 141 255 0
53.03081398452522 3.9585844539626773 30.679623358351524 141 255 0
53.27862152650898 3.9770825121587645 30.714835255959073 141 255 0
53.526429068492746 3.9955805703548517 30.749041099349274 141 255 0
53.77423661047651 4.01407862855094 30.782240888522107 141 255 0
54.02204415246026 4.032576686747027 30.814434623477588 141 255 0
54.269851694444036 4.051074744943114 30.845622304215695 141 255 0
54.5176592364278 4.069572803139201 30.87580393073646 141 255 0
54.76546677841155 4.0880708613352885 30.90497950303986 141 255 0
55.01327432039531 4.106568919531376 30.933149021125896 141 255 0
55.26108186237907 4.125066977727463 30.96031248499458 141 255 0
55.50888940436284 4.14356503592355 30.986469894645904 141 255 0
55.7566969463466 4.162063094119637 31.011621250079873 141 255 0
56.00450448833037 4.180561152315725 31.03576655129648 141 255 0
56.25231203031413 4.1990592105118125 31.058905798295733 141 255 0
56.5001195722979 4.2175572687079 31.081038991077616 141 255 0
56.74792711428166 4.236055326903987 31.10216612964215 141 255 0
56.99573465626542 4.254553385100074 31.122287213989324 141 255 0
57.24354219824918 4.273051443296161 31.141402244119135 141 255 0
57.49134974023294 4.2915495014922485 31.15951122003159 141 255 0
57.73915728221671 4.310047559688336 31.17661414172669 141 255 0
57.98696482420047 4.328545617884423 31.192711009204427 141 255 0
58.23477236618423 4.347043676080511 31.207801822464813 141 255 0
58.48257990816799 4.365541734276597 31.221886581507825 141 255 0
58.73038745015175 4.384039792472684 31.23496528633349 141 255 0
58.97819499213552 4.402537850668772 31.247037936941794 141 255 0
59.22600253411928 4.42103590886486 31.258104533332737 141 255 0
59.473810076103035 4.439533967060947 31.26816507550632 141 255 0
59.72161761808681 4.458032025257034 31.27721956346255 141 255 0
59.96942516007057 4.476530083453121 31.285267997201423 141 255 0
60.21723270205434 4.495028141649208 31.29231037672293 141 255 0
60.4650402440381 4.513526199845296 31.298346702027086 141 255 0
60.712847786021854 4.532024258041383 31.303376973113874 141 255 0
60.960655328005615 4.55052231623747 31.307401189983313 141 255 0
61.208462869989376 4.569020374433557 31.31041935263539 141 255 0
61.45627041197314 4.587518432629645 31.31243146107011 141 255 0
61.704077953956904 4.606016490825732 31.31343751528746 141 255 0
61.951885495940665 4.624514549021819 31.313437515287465 141 255 0
62.199693037924426 4.643012607217906 31.312431461070105 141 255 0
62.44750057990819 4.661510665413994 31.310419352635385 141 255 0
62.695308121891955 4.680008723610081 31.30740118998331 141 255 0
62.943115663875716 4.698506781806168 31.303376973113878 141 255 0
63.190923205859484 4.7170048400022555 31.298346702027082 141 255 0
63.438730747843245 4.735502898198343 31.292310376722924 141 255 0
63.68653828982701 4.754000956394431 31.285267997201423 141 255 0
63.93434583181077 4.772499014590517 31.27721956346256 141 255 0
64.18215337379452 4.790997072786604 31.268165075506325 141 255 0
64.4299609157783 4.809495130982691 31.258104533332734 141 255 0
64.67776845776206 4.8279931891787795 31.2470379369418 141 255 0
64.92557599974582 4.846491247374867 31.234965286333484 141 255 0
65.17338354172958 4.864989305570954 31.22188658150784 141 255 0
65.42119108371334 4.883487363767041 31.20780182246481 141 255 0
65.66899862569711 4.901985421963128 31.192711009204423 141 255 0
65.91680616768087 4.920483480159215 31.176614141726688 141 255 0
66.16461370966464 4.9389815383553035 31.15951122003159 141 255 0
66.4124212516484 4.957479596551391 31.141402244119142 141 255 0
66.66022879363216 4.975977654747477 31.122287213989324 141 255 0
66.90803633561592 4.994475712943565 31.102166129642157 141 255 0
67.15584387759968 5.012973771139652 31.08103899107762 141 255 0
67.40365141958345 5.031471829335739 31.058905798295733 141 255 0
67.65145896156722 5.049969887531827 31.035766551296476 141 255 0
67.89926650355098 5.068467945727914 31.01162125007987 141 255 0
68.14707404553474 5.086966003924001 30.986469894645907 141 255 0
68.3948815875185 5.105464062120089 30.96031248499458 141 255 0
68.64268912950227 5.123962120316176 30.933149021125907 141 255 0
68.89049667148603 5.1424601785122634 30.90497950303986 141 255 0
69.1383042134698 5.16095823670835 30.87580393073646 141 255 0
69.38611175545354 5.179456294904438 30.845622304215695 141 255 0
69.6339192974373 5.197954353100525 30.814434623477588 141 255 0
69.88172683942108 5.216452411296612 30.782240888522104 141 255 0
70.12953438140484 5.234950469492699 30.749041099349263 141 255 0
70.37734192338861 5.253448527688787 30.71483525595908 141 255 0
70.62514946537236 5.271946585884875 30.67962335835152 141 255 0
70.87295700735613 5.290444644080962 30.643405406526618 141 255 0
71.1207645493399 5.308942702277049 30.606181400484346 141 255 0
71.36857209132366 5.327440760473137 30.56795134022471 141 255 0
71.61637963330743 5.345938818669224 30.52871522574773 141 255 0
71.86418717529118 5.364436876865311 30.48847305705339 141 255 0
72.11199471727494 5.382934935061398 30.44722483414168 141 255 0
72.3598022592587 5.401432993257486 30.40497055701261 141 255 0
72.60760980124246 5.419931051453572 30.3617102256662 141 255 0
72.85541734322624 5.438429109649659 30.317443840102413 141 255 0
73.10322488521 5.456927167845747 30.272171400321284 141 255 0
73.35103242719376 5.475425226041835 30.225892906322777 141 255 0
73.59883996917752 5.493923284237922 30.17860835810692 141 255 0
73.8466475111613 5.51242134243401 30.13031775567371 141 255 0
74.09445505314505 5.530919400630097 30.081021099023133 141 255 0
74.34226259512882 5.549417458826184 30.030718388155208 141 255 0
74.59007013711258 5.5679155170222705 29.979409623069913 141 255 0
74.83787767909634 5.586413575218359 29.927094803767268 141 255 0
75.0856852210801 5.604911633414446 29.87377393024726 141 255 0
75.33349276306386 5.623409691610533 29.819447002509897 141 255 0
75.5813003050476 5.641907749806619 29.76411402055517 141 255 0
75.82910784703138 5.660405808002707 29.707774984383086 141 255 0
76.07691538901513 5.678903866198794 29.65042989399364 141 255 0
76.3247229309989 5.697401924394881 29.592078749386843 141 255 0
76.57253047298266 5.715899982590969 29.532721550562677 141 255 0
76.82033801496642 5.734398040787056 29.47235829752117 141 255 0
77.06814555695018 5.752896098983143 29.410988990262283 141 255 0
77.31595309893395 5.77139415717923 29.348613628786048 141 255 0
77.56376064091772 5.789892215375318 29.285232213092456 141 255 0
77.81156818290148 5.808390273571405 29.2208447431815 141 255 0
78.05937572488524 5.826888331767493 29.155451219053198 141 255 0
78.307183266869 5.84538638996358 29.089051640707524 141 255 0
78.55499080885276 5.863884448159666 29.0216460081445 141 255 0
78.80279835083653 5.8823825063557535 28.953234321364107 141 255 0
79.05060589282029 5.900880564551842 28.88381658036637 141 255 0
79.29841343480406 5.919378622747929 28.813392785151265 141 255 0
79.54622097678782 5.937876680944016 28.74196293571879 141 255 0
79.79402851877158 5.956374739140103 28.669527032068977 141 255 0
80.04183606075534 5.97487279733619 28.59608507420179 141 255 0
80.2896436027391 5.993370855532278 28.521637062117264 141 255 0
80.53745114472288 6.011868913728366 28.446182995815356 141 255 0
80.78525868670664 6.030366971924453 28.369722875296105 141 255 0
81.0330662286904 6.04886503012054 28.292256700559484 141 255 0
81.28087377067416 6.067363088316627 28.21378447160552 141 255 0
81.52868131265791 6.085861146512714 28.13430618843418 141 255 0
81.77648885464168 6.104359204708802 28.053821851045484 141 255 0
82.02429639662545 6.122857262904889 27.972331459439445 141 255 0
82.27210393860922 6.141355321100976 27.88983501361603 141 255 0
82.51991148059298 6.159853379297063 27.80633251357527 141 255 0
82.76771902257673 6.178351437493151 27.721823959317142 141 255 0
83.0155265645605 6.196849495689238 27.636309350841664 141 255 0
83.26333410654426 6.215347553885326 27.549788688148816 141 255 0
83.51114164852804 6.233845612081413 27.46226197123861 141 255 0
83.75894919051179 6.2523436702775 27.373729200111057 141 255 0
84.00675673249555 6.270841728473587 27.284190374766133 141 255 0
84.2545642744793 6.289339786669674 27.19364549520386 141 255 0
84.50237181646307 6.3078378448657615 27.102094561424224 141 255 0
84.75017935844684 6.326335903061849 27.00953757342723 141 255 0
84.9979869004306 6.344833961257937 26.915974531212875 141 255 0
85.24579444241436 6.363332019454024 26.82140543478117 141 255 0
85.49360198439813 6.381830077650111 26.725830284132094 141 255 0
85.74140952638189 6.400328135846198 26.629249079265662 141 255 0
85.98921706836566 6.4188261940422855 26.531661820181874 141 255 0
86.23702461034942 6.437324252238373 26.43306850688073 141 255 0
86.48483215233318 6.45582231043446 26.33346913936223 141 255 0
86.73263969431694 6.474320368630547 26.232863717626365 141 255 0
86.9804472363007 6.492818426826634 26.131252241673145 141 255 0
87.22825477828447 6.511316485022722 26.028634711502562 141 255 0
87.47606232026823 6.5298145432188095 25.92501112711463 141 255 0
87.723869862252 6.548312601414897 25.820381488509327 141 255 0
87.97167740423576 6.566810659610984 25.71474579568666 141 255 0
88.21948494621952 6.585308717807071 25.60810404864666 141 255 0
88.46729248820328 6.603806776003158 25.50045624738928 141 255 0
88.71510003018705 6.622304834199247 25.39180239191454 141 255 0
88.96290757217082 6.640802892395334 25.282142482222454 141 255 0
89.21071511415458 6.659300950591421 25.171476518313 141 255 0
89.45852265613831 6.677799008787507 25.05980450018619 141 255 0
89.70633019812209 6.696297066983594 24.947126427842036 141 255 0
89.95413774010585 6.714795125179681 24.8334423012805 141 255 0
90.20194528208961 6.7332931833757685 24.718752120501634 141 255 0
90.44975282407337 6.751791241571857 24.60305588550537 141 255 0
90.69756036605715 6.770289299767944 24.486353596291764 141 255 0
90.94536790804092 6.788787357964031 24.368645252860816 141 255 0
91.19317545002467 6.807285416160118 24.249930855212497 141 255 0
91.44098299200843 6.825783474356205 24.130210403346823 141 255 0
91.6887905339922 6.8442815325522925 24.009483897263777 141 255 0
91.93659807597594 6.862779590748379 23.887751336963404 141 255 0
92.1844056179597 6.881277648944467 23.76501272244566 141 255 0
92.43221315994347 6.899775707140554 23.641268053710533 141 255 0
92.68002070192725 6.918273765336641 23.51651733075805 141 255 0
92.927828243911 6.9367718235327285 23.390760553588237 141 255 0
93.17563578589477 6.955269881728816 23.263997722201026 141 255 0
93.42344332787853 6.973767939924903 23.1362288365965 141 255 0
93.67125086986228 6.992265998120991 23.007453896774592 141 255 0
93.91905841184605 7.010764056317078 22.877672902735327 141 255 0
94.16686595382983 7.029262114513165 22.74688585447869 141 255 0
94.41467349581357 7.0477601727092525 22.615092752004713 141 255 0
94.66248103779735 7.06625823090534 22.482293595313394 141 255 0
94.91028857978111 7.084756289101427 22.34848838440469 141 255 0
95.15809612176488 7.103254347297515 22.213677119278614 141 255 0
95.40590366374863 7.121752405493602 22.07785979993521 141 255 0
95.6537112057324 7.140250463689689 21.941036426374424 141 255 0
95.90151874771617 7.1587485218857765 21.80320699859631 141 255 0
96.14932628969991 7.177246580081864 21.664371516600795 141 255 0
96.39713383168369 7.195744638277953 21.524529980387953 141 255 0
96.64494137366746 7.21424269647404 21.383682389957755 141 255 0
96.89274891565123 7.232740754670127 21.241828745310187 141 255 0
97.14055645763496 7.251238812866212 21.098969046445248 141 255 0
97.38836399961873 7.2697368710623 20.95510329336298 141 255 0
97.6361715416025 7.288234929258387 20.81023148606333 141 255 0
97.88397908358625 7.306732987454474 20.664353624546337 141 255 0
98.13178662557002 7.325231045650562 20.517469708811973 141 255 0
98.37959416755379 7.343729103846649 20.369579738860253 141 255 0
98.62740170953755 7.362227162042736 20.220683714691177 141 255 0
98.87520925152131 7.380725220238824 20.07078163630473 141 255 0
99.12301679350507 7.399223278434911 19.91987350370094 141 255 0
99.37082433548885 7.417721336630998 19.767959316879782 141 255 0
99.6186318774726 7.436219394827087 19.615039075841267 141 255 0
99.86643941945637 7.454717453023174 19.461112780585395 141 255 0
100.11424696144013 7.47321551121926 19.306180431112168 141 255 0
100.36205450342389 7.491713569415348 19.150242027421584 141 255 0
100.60986204540765 7.510211627611435 18.993297569513643 141 255 0
100.85766958739143 7.528709685807522 18.83534705738832 141 255 0
101.10547712937519 7.547207744003611 18.676390491045666 141 255 0
101.35328467135895 7.565705802199698 18.516427870485643 141 255 0
101.60109221334271 7.584203860395785 18.35545919570825 141 255 0
101.84889975532649 7.6027019185918725 18.193484466713514 141 255 0
102.09670729731023 7.62119997678796 18.030503683501422 141 255 0
102.34451483929398 7.639698034984045 17.86651684607199 141 255 0
102.59232238127775 7.658196093180132 17.70152395442514 141 255 0
102.84012992326153 7.67669415137622 17.535525008560967 141 255 0
103.08793746524528 7.6951922095723075 17.36852000847945 141 255 0
103.33574500722904 7.713690267768395 17.200508954180563 141 255 0
103.58355254921281 7.732188325964482 17.031491845664306 141 255 0
103.83136009119656 7.750686384160569 16.861468682930692 141 255 0
104.07916763318032 7.769184442356655 16.690439465979736 141 255 0
104.32697517516408 7.787682500552743 16.51840419481141 141 255 0
104.57478271714783 7.806180558748831 16.345362869425728 141 255 0
104.8225902591316 7.824678616944918 16.171315489822675 141 255 0
105.07039780111538 7.843176675141005 15.99626205600228 141 255 0
105.31820534309914 7.861674733337092 15.820202567964529 141 255 0
105.56601288508288 7.880172791533179 15.643137025709379 141 255 0
105.81382042706666 7.898670849729267 15.465065429236915 141 255 0
106.06162796905043 7.917168907925355 15.285987778547081 141 255 0
106.30943551103418 7.935666966121442 15.105904073639877 141 255 0
106.55724305301796 7.954165024317529 14.924814314515316 141 255 0
106.80505059500172 7.972663082513616 14.742718501173428 141 255 0
107.05285813698549 7.991161140709703 14.559616633614155 141 255 0
107.30066567896924 8.009659198905792 14.375508711837497 141 255 0
107.54847322095301 8.02815725710188 14.190394735843526 141 255 0
107.79628076293677 8.046655315297967 14.00427470563217 141 255 0
108.04408830492052 8.065153373494054 13.817148621203486 141 255 0
108.2918958469043 8.083651431690141 13.62901648255739 141 255 0
108.53970338888807 8.102149489886228 13.439878289693965 141 255 0
108.78751093087182 8.120647548082315 13.249734042613198 141 255 0
109.0353184728556 8.139145606278403 13.058583741315061 141 255 0
109.28312601483934 8.15764366447449 12.866427385799554 141 255 0
109.5309335568231 8.176141722670577 12.673264976066719 141 255 0
109.77874109880686 8.194639780866664 12.479096512116499 141 255 0
110.02654864079062 8.213137839062751 12.283921993948908 141 255 0
110.2743561827744 8.231635897258839 12.087741421563976 141 255 0
110.52216372475814 8.250133955454926 11.890554794961687 141 255 0
110.76997126674192 8.268632013651013 11.692362114142043 141 255 0
111.01777880872568 8.2871300718471 11.493163379105013 141 255 0
111.26558635070946 8.305628130043187 11.292958589850656 141 255 0
111.5133938926932 8.324126188239275 11.091747746378928 141 255 0
111.76120143467698 8.342624246435362 10.889530848689844 141 255 0
112.00900897666074 8.36112230463145 10.68630789678339 141 255 0
112.2568165186445 8.379620362827538 10.482078890659594 141 255 0
112.50462406062826 8.398118421023625 10.276843830318441 141 255 0
112.75243160261203 8.416616479219712 10.070602715759918 141 255 0
113.0002391445958 8.4351145374158 9.863355546984025 141 255 0
113.24804668657956 8.453612595611887 9.655102323990803 141 255 0
113.49585422856332 8.472110653807974 9.445843046780197 141 255 0
113.74366177054709 8.490608712004061 9.235577715352264 141 255 0
113.99146931253084 8.509106770200148 9.024306329706931 141 255 0
114.23927685451461 8.527604828396235 8.812028889844257 141 255 0
114.48708439649836 8.546102886592323 8.59874539576424 141 255 0
114.73489193848211 8.56460094478841 8.384455847466839 141 255 0
114.98269948046588 8.583099002984497 8.169160244952096 141 255 0
115.23050702244964 8.601597061180584 7.952858588219996 141 255 0
115.47831456443342 8.620095119376671 7.735550877270541 141 255 0
115.72612210641717 8.638593177572758 7.5172371121037 141 255 0
115.97392964840094 8.657091235768846 7.297917292719518 141 255 0
116.22173719038472 8.675589293964933 7.077591419117979 141 255 0
116.46954473236846 8.694087352161022 6.856259491299099 141 255 0
116.71735227435222 8.712585410357109 6.633921509262819 141 255 0
116.96515981633598 8.731083468553194 6.410577473009212 141 255 0
117.21296735831974 8.749581526749282 6.186227382538249 141 255 0
117.4607749003035 8.768079584945369 5.960871237849915 141 255 0
117.70858244228727 8.786577643141456 5.734509038944211 141 255 0
117.95638998427104 8.805075701337543 5.507140785821164 141 255 0
118.20419752625479 8.823573759533632 5.278766478480762 141 255 0
118.45200506823856 8.84207181772972 5.049386116922975 141 255 0
118.69981261022232 8.860569875925806 4.818999701147845 141 255 0
118.94762015220607 8.879067934121894 4.58760723115536 141 255 0
119.19542769418985 8.89756599231798 4.3552087069455325 141 255 0
119.44323523617362 8.916064050514068 4.121804128518306 141 255 0
119.69104277815738 8.934562108710155 3.887393495873752 141 255 0
119.93885032014114 8.953060166906242 3.651976809011842 141 255 0
120.1866578621249 8.97155822510233 3.415554067932561 141 255 0
120.43446540410868 8.990056283298417 3.17812527263591 141 255 0
120.68227294609243 9.008554341494504 2.9396904231219168 141 255 0
120.9300804880762 9.027052399690591 2.7002495193905673 141 255 0
121.17788803005995 9.045550457886678 2.459802561441876 141 255 0
121.42569557204371 9.064048516082766 2.2183495492757856 141 255 0
121.67350311402747 9.082546574278853 1.9758904828923676 141 255 0
121.92131065601123 9.10104463247494 1.732425362291579 141 255 0
122.169118197995 9.119542690671027 1.4879541874734343 141 255 0
122.41692573997875 9.138040748867114 1.2424769584379192 141 255 0
122.66473328196253 9.156538807063201 0.9959936751850478 141 255 0
122.91254082394629 9.17503686525929 0.7485043377148344 141 255 0
123.16034836593006 9.193534923455378 0.5000089460272363 141 255 0
123.40815590791381 9.212032981651465 0.2505075001222963 141 255 0
123.65596344989758 9.230531039847552 0 141 255 0
0 0 0 199 255 0
0.3921464935204405 -0.022397154220878526 0.46475726518597626 199 255 0
0.784292987040881 -0.04479430844175705 0.927648035331045 199 255 0
1.1764394805613216 -0.06719146266263558 1.3886723104352063 199 255 0
1.568585974081762 -0.0895886168835141 1.84783009049846 199 255 0
1.9607324676022024 -0.11198577110439262 2.305121375520806 199 255 0
2.3528789611226433 -0.13438292532527116 2.7605461655022445 199 255 0
2.7450254546430837 -0.15678007954614967 3.2141044604427758 199 255 0
3.137171948163524 -0.1791772337670282 3.665796260342399 199 255 0
3.529318441683965 -0.20157438798790675 4.115621565201115 199 255 0
3.921464935204405 -0.22397154220878523 4.563580375018923 199 255 0
4.313611428724846 -0.24636869642966377 5.009672689795824 199 255 0
4.7057579222452866 -0.2687658506505423 5.453898509531818 199 255 0
5.0979044157657265 -0.2911630048714208 5.896257834226904 199 255 0
5.490050909286167 -0.31356015909229934 6.336750663881083 199 255 0
5.882197402806607 -0.33595731331317785 6.775376998494352 199 255 0
6.274343896327048 -0.3583544675340564 7.212136838066716 199 255 0
6.666490389847488 -0.3807516217549349 7.647030182598171 199 255 0
7.05863688336793 -0.4031487759758135 8.080057032088721 199 255 0
7.450783376888371 -0.42554593019669207 8.511217386538362 199 255 0
7.84292987040881 -0.44794308441757047 8.940511245947095 199 255 0
8.23507636392925 -0.47034023863844904 9.36793861031492 199 255 0
8.627222857449691 -0.49273739285932755 9.793499479641836 199 255 0
9.01936935097013 -0.515134547080206 10.217193853927848 199 255 0
9.411515844490573 -0.5375317013010846 10.639021733172951 199 255 0
9.803662338011012 -0.5599288555219631 11.058983117377148 199 255 0
10.195808831531453 -0.5823260097428417 11.477078006540435 199 255 0
10.587955325051894 -0.6047231639637203 11.893306400662816 199 255 0
10.980101818572335 -0.6271203181845987 12.307668299744288 199 255 0
11.372248312092776 -0.6495174724054773 12.720163703784854 199 255 0
11.764394805613215 -0.6719146266263557 13.130792612784509 199 255 0
12.156541299133657 -0.6943117808472343 13.539555026743262 199 255 0
12.548687792654096 -0.7167089350681128 13.946450945661104 199 255 0
12.940834286174539 -0.7391060892889914 14.35148036953804 199 255 0
13.332980779694976 -0.7615032435098698 14.754643298374065 199 255 0
13.725127273215419 -0.7839003977307484 15.155939732169188 199 255 0
14.11727376673586 -0.806297551951627 15.555369670923401 199 255 0
14.5094202602563 -0.8286947061725055 15.952933114636705 199 255 0
14.901566753776741 -0.8510918603933841 16.348630063309102 199 255 0
15.293713247297179 -0.8734890146142624 16.74246051694059 199 255 0
15.68585974081762 -0.8958861688351409 17.134424475531173 199 255 0
16.078006234338062 -0.9182833230560197 17.52452193908085 199 255 0
16.4701527278585 -0.9406804772768981 17.912752907589617 199 255 0
16.862299221378944 -0.9630776314977766 18.299117381057478 199 255 0
17.254445714899383 -0.9854747857186551 18.683615359484428 199 255 0
17.646592208419825 -1.0078719399395337 19.066246842870477 199 255 0
18.03873870194026 -1.030269094160412 19.44701183121561 199 255 0
18.430885195460707 -1.0526662483812907 19.82591032451984 199 255 0
18.823031688981146 -1.0750634026021693 20.202942322783162 199 255 0
19.215178182501585 -1.0974605568230478 20.578107826005574 199 255 0
19.607324676022024 -1.1198577110439263 20.951406834187086 199 255 0
19.999471169542467 -1.142254865264805 21.322839347327687 199 255 0
20.391617663062906 -1.1646520194856833 21.692405365427376 199 255 0
20.78376415658335 -1.187049173706562 22.06010488848616 199 255 0
21.175910650103788 -1.2094463279274406 22.425937916504036 199 255 0
21.568057143624227 -1.2318434821483188 22.789904449481003 199 255 0
21.96020363714467 -1.2542406363691974 23.15200448741707 199 255 0
22.352350130665112 -1.276637790590076 23.512238030312222 199 255 0
22.74449662418555 -1.2990349448109546 23.87060507816647 199 255 0
23.13664311770599 -1.3214320990318331 24.227105630979807 199 255 0
23.52878961122643 -1.3438292532527114 24.581739688752236 199 255 0
23.920936104746872 -1.3662264074735901 24.934507251483765 199 255 0
24.313082598267314 -1.3886235616944687 25.28540831917438 199 255 0
24.70522909178775 -1.4110207159153472 25.634442891824087 199 255 0
25.097375585308193 -1.4334178701362257 25.98161096943289 199 255 0
25.48952207882863 -1.4558150243571042 26.32691255200078 199 255 0
25.881668572349078 -1.4782121785779827 26.670347639527776 199 255 0
26.273815065869513 -1.5006093327988612 27.011916232013853 199 255 0
26.665961559389952 -1.5230064870197395 27.351618329459022 199 255 0
27.058108052910395 -1.5454036412406185 27.689453931863287 199 255 0
27.450254546430838 -1.5678007954614968 28.025423039226645 199 255 0
27.84240103995128 -1.5901979496823755 28.35952565154909 199 255 0
28.23454753347172 -1.612595103903254 28.691761768830634 199 255 0
28.626694026992155 -1.6349922581241325 29.022131391071262 199 255 0
29.0188405205126 -1.657389412345011 29.350634518270994 199 255 0
29.410987014033037 -1.6797865665658895 29.677271150429814 199 255 0
29.803133507553483 -1.7021837207867683 30.002041287547726 199 255 0
30.195280001073918 -1.7245808750076463 30.324944929624724 199 255 0
30.587426494594357 -1.7469780292285249 30.645982076660815 199 255 0
30.9795729881148 -1.7693751834494034 30.965152728656008 199 255 0
31.37171948163524 -1.7917723376702819 31.282456885610294 199 255 0
31.76386597515568 -1.8141694918911608 31.597894547523666 199 255 0
32.156012468676124 -1.8365666461120393 31.911465714396133 199 255 0
32.54815896219656 -1.8589638003329174 32.223170386227686 199 255 0
32.940305455717 -1.8813609545537961 32.53300856301834 199 255 0
33.332451949237445 -1.9037581087746747 32.84098024476808 199 255 0
33.72459844275789 -1.9261552629955532 33.147085431476924 199 255 0
34.11674493627833 -1.9485524172164317 33.45132412314485 199 255 0
34.508891429798766 -1.9709495714373102 33.75369631977186 199 255 0
34.90103792331921 -1.9933467256581892 34.05420202135799 199 255 0
35.29318441683965 -2.0157438798790674 34.35284122790319 199 255 0
35.685330910360086 -2.0381410340999455 34.64961393940749 199 255 0
36.07747740388052 -2.060538188320824 34.944520155870876 199 255 0
36.469623897400965 -2.0829353425417025 35.23755987729335 199 255 0
36.861770390921414 -2.1053324967625815 35.52873310367494 199 255 0
37.25391688444185 -2.1277296509834596 35.818039835015604 199 255 0
37.64606337796229 -2.1501268052043385 36.10548007131536 199 255 0
38.03820987148273 -2.172523959425217 36.391053812574214 199 255 0
38.43035636500317 -2.1949211136460955 36.67476105879216 199 255 0
38.82250285852361 -2.217318267866974 36.9566018099692 199 255 0
39.21464935204405 -2.2397154220878526 37.23657606610533 199 255 0
39.60679584556449 -2.2621125763087315 37.51468382720056 199 255 0
39.998942339084934 -2.28450973052961 37.79092509325487 199 255 0
40.39108883260538 -2.306906884750488 38.06529986426827 199 255 0
40.78323532612581 -2.3293040389713666 38.337808140240774 199 255 0
41.175381819646255 -2.351701193192245 38.608449921172365 199 255 0
41.5675283131667 -2.374098347413124 38.87722520706305 199 255 0
41.95967480668713 -2.396495501634002 39.14413399791283 199 255 0
42.351821300207575 -2.418892655854881 39.4091762937217 199 255 0
42.74396779372802 -2.441289810075759 39.67235209448967 199 255 0
43.13611428724845 -2.4636869642966377 39.933661400216714 199 255 0
43.528260780768896 -2.486084118517516 40.19310421090287 199 255 0
43.92040727428934 -2.5084812727383947 40.450680526548105 199 255 0
44.31255376780979 -2.5308784269592737 40.706390347152436 199 255 0
44.704700261330224 -2.553275581180152 40.960233672715866 199 255 0
45.09684675485066 -2.5756727354010303 41.212210503238374 199 255 0
45.4889932483711 -2.598069889621909 41.46232083871999 199 255 0
45.881139741891545 -2.6204670438427877 41.7105646791607 199 255 0
46.27328623541198 -2.6428641980636662 41.95694202456048 199 255 0
46.665432728932416 -2.6652613522845443 42.201452874919376 199 255 0
47.05757922245286 -2.687658506505423 42.44409723023735 199 255 0
47.44972571597331 -2.7100556607263018 42.684875090514424 199 255 0
47.841872209493744 -2.7324528149471803 42.92378645575059 199 255 0
48.234018703014186 -2.754849969168059 43.16083132594585 199 255 0
48.62616519653463 -2.7772471233889373 43.3960097011002 199 255 0
49.01831169005506 -2.7996442776098154 43.62932158121363 199 255 0
49.4104581835755 -2.8220414318306943 43.86076696628617 199 255 0
49.802604677095935 -2.8444385860515724 44.090345856317796 199 255 0
50.194751170616385 -2.8668357402724514 44.318058251308514 199 255 0
50.58689766413682 -2.88923289449333 44.54390415125833 199 255 0
50.97904415765726 -2.9116300487142084 44.76788355616723 199 255 0
51.371190651177706 -2.9340272029350865 44.98999646603524 199 255 0
51.763337144698156 -2.9564243571559654 45.210242880862324 199 255 0
52.155483638218584 -2.9788215113768435 45.4286228006485 199 255 0
52.54763013173903 -3.0012186655977224 45.64513622539378 199 255 0
52.93977662525947 -3.023615819818601 45.85978315509814 199 255 0
53.331923118779905 -3.046012974039479 46.0725635897616 199 255 0
53.72406961230035 -3.068410128260358 46.28347752938416 199 255 0
54.11621610582079 -3.090807282481237 46.4925249739658 199 255 0
54.50836259934123 -3.1132044367021146 46.69970592350653 199 255 0
54.900509092861675 -3.1356015909229935 46.90502037800637 199 255 0
55.29265558638212 -3.1579987451438725 47.10846833746528 199 255 0
55.68480207990256 -3.180395899364751 47.310049801883295 199 255 0
56.07694857342299 -3.202793053585629 47.50976477126041 199 255 0
56.46909506694344 -3.225190207806508 47.707613245596605 199 255 0
56.86124156046389 -3.247587362027387 47.9035952248919 199 255 0
57.25338805398431 -3.269984516248265 48.09771070914627 199 255 0
57.64553454750476 -3.2923816704691435 48.28995969835976 199 255 0
58.0376810410252 -3.314778824690022 48.480342192532326 199 255 0
58.42982753454564 -3.3371759789109 48.66885819166398 199 255 0
58.82197402806607 -3.359573133131779 48.85550769575474 199 255 0
59.21412052158652 -3.3819702873526576 49.04029070480459 199 255 0
59.606267015106965 -3.4043674415735365 49.22320721881353 199 255 0
59.99841350862739 -3.4267645957944137 49.40425723778156 199 255 0
60.390560002147836 -3.4491617500152927 49.58344076170867 199 255 0
60.78270649566828 -3.4715589042361716 49.760757790594894 199 255 0
61.174852989188715 -3.4939560584570497 49.93620832444019 199 255 0
61.56699948270915 -3.5163532126779278 50.10979236324461 199 255 0
61.9591459762296 -3.5387503668988067 50.28150990700809 199 255 0
62.35129246975004 -3.5611475211196857 50.45136095573068 199 255 0
62.74343896327048 -3.5835446753405638 50.61934550941236 199 255 0
63.13558545679091 -3.6059418295614427 50.78546356805313 199 255 0
63.52773195031136 -3.6283389837823217 50.949715131652994 199 255 0
63.919878443831806 -3.6507361380031997 51.112100200211955 199 255 0
64.31202493735225 -3.6731332922240787 51.27261877373 199 255 0
64.70417143087269 -3.6955304464449568 51.431270852207135 199 255 0
65.09631792439312 -3.717927600665835 51.58805643564336 199 255 0
65.48846441791356 -3.740324754886714 51.7429755240387 199 255 0
65.880610911434 -3.7627219091075923 51.896028117393115 199 255 0
66.27275740495446 -3.7851190633284713 52.047214215706624 199 255 0
66.66490389847489 -3.8075162175493493 52.19653381897923 199 255 0
67.05705039199533 -3.8299133717702283 52.34398692721092 199 255 0
67.44919688551578 -3.8523105259911063 52.48957354040171 199 255 0
67.8413433790362 -3.8747076802119844 52.63329365855158 199 255 0
68.23348987255666 -3.8971048344328634 52.775147281660566 199 255 0
68.62563636607709 -3.9195019886537423 52.91513440972863 199 255 0
69.01778285959753 -3.9418991428746204 53.05325504275578 199 255 0
69.40992935311797 -3.9642962970954994 53.18950918074204 199 255 0
69.80207584663842 -3.9866934513163783 53.32389682368738 199 255 0
70.19422234015886 -4.009090605537257 53.45641797159182 199 255 0
70.5863688336793 -4.031487759758135 53.587072624455345 199 255 0
70.97851532719973 -4.0538849139790125 53.71586078227796 199 255 0
71.37066182072017 -4.076282068199891 53.84278244505967 199 255 0
71.76280831424062 -4.0986792224207695 53.967837612800466 199 255 0
72.15495480776104 -4.121076376641648 54.09102628550038 199 255 0
72.5471013012815 -4.1434735308625275 54.212348463159366 199 255 0
72.93924779480193 -4.165870685083405 54.33180414577744 199 255 0
73.33139428832237 -4.1882678393042845 54.44939333335463 199 255 0
73.72354078184283 -4.210664993525163 54.56511602589089 199 255 0
74.11568727536326 -4.2330621477460415 54.678972223386246 199 255 0
74.5078337688837 -4.255459301966919 54.790961925840705 199 255 0
74.89998026240414 -4.2778564561877985 54.90108513325425 199 255 0
75.29212675592458 -4.300253610408677 55.00934184562688 199 255 0
75.68427324944501 -4.3226507646295556 55.11573206295861 199 255 0
76.07641974296546 -4.345047918850434 55.220255785249435 199 255 0
76.4685662364859 -4.367445073071313 55.32291301249935 199 255 0
76.86071273000634 -4.389842227292191 55.42370374470835 199 255 0
77.25285922352678 -4.41223938151307 55.52262798187646 199 255 0
77.64500571704723 -4.434636535733948 55.619685724003645 199 255 0
78.03715221056767 -4.457033689954827 55.71487697108993 199 255 0
78.4292987040881 -4.479430844175705 55.80820172313531 199 255 0
78.82144519760855 -4.501827998396584 55.89965998013978 199 255 0
79.21359169112898 -4.524225152617463 55.989251742103335 199 255 0
79.60573818464943 -4.546622306838341 56.07697700902599 199 255 0
79.99788467816987 -4.56901946105922 56.16283578090774 199 255 0
80.39003117169031 -4.591416615280098 56.24682805774858 199 255 0
80.78217766521075 -4.613813769500976 56.328953839548504 199 255 0
81.1743241587312 -4.636210923721855 56.40921312630754 199 255 0
81.56647065225162 -4.658608077942733 56.48760591802565 199 255 0
81.95861714577207 -4.681005232163612 56.56413221470286 199 255 0
82.35076363929251 -4.70340238638449 56.63879201633917 199 255 0
82.74291013281294 -4.725799540605369 56.71158532293456 199 255 0
83.1350566263334 -4.748196694826248 56.78251213448904 199 255 0
83.52720311985382 -4.770593849047126 56.85157245100262 199 255 0
83.91934961337427 -4.792991003268004 56.918766272475295 199 255 0
84.31149610689472 -4.815388157488883 56.98409359890706 199 255 0
84.70364260041515 -4.837785311709762 57.04755443029791 199 255 0
85.0957890939356 -4.86018246593064 57.10914876664787 199 255 0
85.48793558745604 -4.882579620151518 57.1688766079569 199 255 0
85.88008208097648 -4.904976774372398 57.22673795422504 199 255 0
86.2722285744969 -4.927373928593275 57.282732805452255 199 255 0
86.66437506801735 -4.949771082814154 57.33686116163859 199 255 0
87.05652156153779 -4.972168237035032 57.38912302278399 199 255 0
87.44866805505823 -4.994565391255911 57.43951838888849 199 255 0
87.84081454857868 -5.016962545476789 57.48804725995209 199 255 0
88.23296104209912 -5.039359699697669 57.53470963597478 199 255 0
88.62510753561958 -5.061756853918547 57.57950551695656 199 255 0
89.01725402913999 -5.084154008139426 57.62243490289744 199 255 0
89.40940052266045 -5.106551162360304 57.6634977937974 199 255 0
