ply
format ascii 1.0
element vertex 1370
property float x
property float y
property float z
property uchar red
property uchar green
property uchar blue
end_header
-10421.53 -4225.46 1882.14 173 222 0
-10972.00 -3878.64 1851.66 156 227 0
-11501.30 -3549.16 1828.80 180 220 0
-12030.60 -3216.06 1805.94 179 220 0
-12567.96 -2892.54 1783.08 177 221 0
-13054.69 -2592.22 1760.22 227 208 0
-13608.73 -2256.28 1722.12 158 226 0
-14121.34 -1945.78 1691.64 202 214 0
-14680.56 -1604.74 1661.16 152 228 0
-15203.54 -1284.07 1623.06 189 218 0
-15736.86 -953.21 1584.96 176 221 0
-16213.24 -657.99 1546.86 236 205 0
-16731.03 -337.31 1516.38 193 217 0
-17297.15 13.99 1478.28 141 230 0
-17815.87 334.93 1440.18 192 217 0
-18345.17 661.04 1409.70 182 220 0
-18810.96 945.74 1386.84 250 201 0
-19350.84 1271.85 1356.36 174 222 0
-19894.76 1591.84 1325.88 173 222 0
-20438.44 1902.33 1303.02 178 221 0
-20938.75 2198.42 1272.54 218 210 0
-21478.64 2503.83 1242.06 183 219 0
-22012.54 2813.46 1219.20 186 218 0
-22537.24 3114.64 1188.72 197 216 0
-23022.24 3398.82 1173.48 236 205 0
-23548.21 3709.92 1165.86 192 217 0
-24066.92 4025.68 1143.00 195 216 0
-24559.17 4377.68 1120.14 197 216 0
-24943.26 4788.42 1097.28 235 205 0
-25238.40 5307.61 1074.42 204 214 0
-25379.59 5811.53 1066.80 255 235 0
-25400.76 6380.93 1051.56 229 207 0
-25294.90 6898.57 1028.70 255 242 0
-25093.77 7385.15 1013.46 255 239 0
-24855.58 7866.55 1005.84 255 251 0
-24642.94 8290.41 1005.84 255 181 0
-24416.26 8746.53 1005.84 255 220 0
-24192.46 9196.45 1013.46 255 212 0
-23938.74 9593.48 1013.46 255 177 0
-23628.06 9903.97 1013.46 255 141 0
-23225.33 10123.45 1013.46 255 163 0
-22773.70 10229.74 1013.46 255 169 0
-22297.33 10280.64 1013.46 255 186 0
-21865.03 10309.80 1013.46 255 135 0
-21432.61 10331.54 1013.46 255 134 0
-20959.92 10361.56 1013.46 255 180 0
-20515.31 10392.62 1021.08 255 149 0
-20038.94 10418.50 1021.08 255 184 0
-19584.08 10448.61 1021.08 255 160 0
-19112.89 10479.15 1021.08 255 178 0
-18668.04 10511.68 1021.08 255 149 0
-18191.21 10545.32 1021.08 255 185 0
-17735.55 10575.86 1021.08 255 161 0
-17279.89 10596.22 1013.46 255 160 0
-16868.42 10573.79 1013.46 255 111 0
-16407.93 10470.27 1013.46 255 178 0
-16000.36 10346.03 1013.46 255 127 0
-15566.34 10190.74 1013.46 255 166 0
-15141.40 10005.77 1013.46 255 169 0
-14747.88 9802.17 1005.84 255 146 0
-14359.53 9585.11 990.60 255 148 0
-13945.29 9338.97 967.74 255 190 0
-13582.84 9120.10 944.88 255 124 0
-13204.85 8885.95 922.02 255 148 0
-12837.21 8646.72 899.16 255 141 0
-12454.04 8402.39 876.30 255 159 0
-12055.34 8147.89 853.44 255 180 0
-11672.17 7903.56 838.20 255 159 0
-11294.18 7669.42 815.34 255 148 0
-10908.48 7426.56 792.48 255 161 0
-10500.92 7167.74 762.00 255 191 0
-10108.43 6921.17 739.14 255 169 0
-9733.43 6686.34 723.90 255 145 0
-9352.45 6447.79 701.04 255 154 0
-8928.89 6179.05 670.56 255 212 0
-8553.09 5940.94 647.70 255 148 0
-8171.88 5699.55 624.84 255 156 0
-7773.18 5450.13 609.60 255 176 0
-7415.09 5221.42 586.74 255 126 0
-7049.87 4988.49 563.88 255 135 0
-6659.92 4742.61 541.02 255 166 0
-6302.64 4518.65 518.16 255 123 0
-5943.63 4294.85 495.30 255 124 0
-5631.35 4092.98 472.44 255 67 0
-5287.76 3877.29 457.20 255 104 0
-4956.37 3673.69 434.34 255 86 0
-4614.63 3454.81 411.48 255 105 0
-4283.24 3246.12 396.24 255 89 0
-3962.20 3042.52 373.38 255 76 0
-3635.88 2835.12 358.14 255 83 0
-3344.76 2653.94 342.90 255 34 0
-3025.00 2452.07 320.04 255 74 0
-2678.07 2238.28 304.80 255 106 0
-2357.04 2034.68 281.94 255 76 0
-2030.83 1825.98 266.70 255 84 0
-1725.10 1629.02 243.84 255 58 0
-1393.94 1423.87 228.60 255 86 0
-1072.91 1220.26 205.74 255 76 0
-767.06 1023.39 190.50 255 57 0
-441.20 818.14 167.64 255 82 0
-158.37 640.33 152.40 255 24 0
201.56 417.75 129.54 255 124 0
325.14 339.67 106.68 255 0 0
770.44 59.72 99.06 255 238 0
-25228.05 27108.51 1737.36 255 0 0
-24876.75 26563.61 1699.26 157 226 0
-24492.78 25968.33 1661.16 104 241 0
-24125.14 25388.05 1630.68 123 235 0
-23749.34 24808.82 1615.44 120 236 0
-23384.70 24232.60 1600.20 128 234 0
-23037.77 23693.05 1584.96 164 224 0
-22680.15 23147.20 1569.72 155 227 0
-22338.75 22619.04 1562.10 176 221 0
-21986.65 22069.31 1546.86 154 227 0
-21616.25 21495.94 1539.24 128 234 0
-21277.27 20964.76 1531.62 175 222 0
-20938.75 20445.14 1516.38 184 219 0
-20600.00 19917.15 1501.14 177 221 0
-20240.07 19358.10 1485.90 143 230 0
-19910.29 18842.19 1470.66 191 217 0
-19542.66 18277.19 1455.42 135 232 0
-19200.91 17763.09 1440.18 186 218 0
-18858.59 17235.79 1424.94 176 221 0
-18519.84 16723.32 1409.70 189 218 0
-18217.10 16251.33 1394.46 237 205 0
-17889.97 15739.81 1386.84 195 216 0
-17567.10 15237.71 1363.98 204 214 0
-17259.18 14759.93 1333.50 230 207 0
-16938.15 14250.92 1303.02 200 215 0
-16646.11 13793.50 1280.16 253 201 0
-16312.65 13270.68 1257.30 183 219 0
-16010.95 12794.46 1234.44 234 206 0
-15709.25 12328.58 1211.58 242 204 0
-15384.76 11817.85 1181.10 197 216 0
-15094.80 11369.92 1143.00 255 248 0
-14810.01 10932.17 1112.52 255 235 0
-14491.85 10439.21 1082.04 213 211 0
-14195.45 9983.69 1051.56 252 201 0
-13883.16 9543.70 1021.08 255 255 0
-13560.28 9186.53 990.60 255 190 0
-13152.72 8850.06 960.12 255 242 0
-12692.23 8555.01 929.64 249 202 0
-12267.64 8300.59 899.16 255 205 0
-11837.87 8035.90 876.30 255 215 0
-11427.20 7768.20 845.82 255 199 0
-11019.75 7506.53 830.58 255 192 0
-10631.41 7262.21 807.72 255 164 0
-10273.32 7033.16 784.86 255 126 0
-9890.96 6788.83 754.38 255 159 0
-9500.54 6541.40 731.52 255 168 0
-9182.96 6344.70 723.90 255 68 0
-8829.48 6127.12 701.04 255 115 0
-8472.20 5908.24 670.56 255 120 0
-8171.99 5723.53 640.08 255 46 0
-7845.67 5521.40 601.98 255 82 0
-7524.63 5322.88 579.12 255 73 0
-7240.42 5138.60 563.88 255 30 0
-6922.84 4931.55 541.02 255 75 0
-6626.43 4740.02 525.78 255 45 0
-6323.35 4539.01 510.54 255 57 0
-6012.67 4340.49 495.30 255 63 0
-5717.53 4152.16 487.68 255 42 0
-5422.39 3958.73 472.44 255 45 0
-5142.78 3780.58 457.20 255 22 0
-4832.10 3582.07 434.34 255 63 0
-4521.42 3388.64 411.48 255 60 0
-4226.28 3200.31 388.62 255 43 0
-3937.58 3016.29 365.76 255 34 0
-3641.17 2828.73 350.52 255 43 0
-3340.85 2640.40 335.28 255 47 0
-3048.35 2462.42 320.04 255 34 0
-2762.53 2286.42 304.80 255 26 0
-2455.42 2095.76 281.94 255 55 0
-2129.21 1892.15 266.70 255 81 0
-1854.78 1714.00 251.46 255 17 0
-1523.97 1504.79 228.60 255 89 0
-1254.02 1328.79 213.36 255 11 0
-938.28 1128.64 190.50 255 69 0
-640.03 945.74 175.26 255 42 0
-354.21 764.57 160.02 255 29 0
-58.03 578.91 137.16 255 42 0
249.20 386.69 121.92 255 56 0
476.79 241.75 114.30 255 0 0
720.27 91.64 99.06 255 0 0
720.27 91.64 106.68 255 0 0
-35578.77 10245.01 1699.26 255 0 0
-35024.73 10565.68 1676.40 165 224 0
-34451.82 10894.73 1661.16 147 229 0
-33906.29 11207.04 1645.92 176 221 0
-33345.58 11510.72 1630.68 168 223 0
-32789.81 11738.48 1623.06 201 214 0
-32140.61 11863.66 1607.82 147 229 0
-31577.71 11898.95 1577.34 233 206 0
-30937.26 11914.47 1546.86 165 224 0
-30354.22 11914.56 1524.00 217 210 0
-29758.75 11914.56 1516.38 206 213 0
-29132.22 11919.65 1501.14 178 221 0
-28583.36 11919.65 1493.52 248 202 0
-28020.80 11924.83 1470.66 235 205 0
-27485.63 11929.83 1440.18 255 250 0
-26895.35 11940.01 1402.08 209 212 0
-26327.04 11955.89 1363.98 229 207 0
-25787.15 11966.24 1325.88 255 200 0
-25228.05 11985.82 1295.40 238 205 0
-24654.45 12007.65 1257.30 224 208 0
-24109.61 12031.63 1219.20 250 201 0
-23585.26 12049.06 1181.10 255 238 0
-23050.66 12064.59 1135.38 255 250 0
-22488.91 12087.62 1089.66 234 206 0
-21970.89 12106.00 1051.56 255 231 0
-21417.08 12107.98 1021.08 243 203 0
-20922.87 12028.35 1005.84 255 210 0
-20441.21 11852.36 998.22 255 224 0
-20039.74 11649.88 998.22 255 153 0
-19626.08 11407.19 1005.84 255 187 0
-19226.80 11166.32 1005.84 255 172 0
-18864.35 10947.44 1005.84 255 124 0
-18477.50 10713.56 1005.84 255 156 0
-18117.57 10490.97 1005.84 255 124 0
-17768.23 10273.56 998.22 255 111 0
-17409.34 10046.49 982.98 255 126 0
-17041.71 9817.44 960.12 255 135 0
-16672.58 9585.11 937.26 255 139 0
-16333.82 9367.70 914.40 255 101 0
-16016.24 9171.00 899.16 255 68 0
-15661.61 8943.24 876.30 255 122 0
-15358.87 8753.61 861.06 255 50 0
-15027.49 8544.91 845.82 255 89 0
-14724.75 8353.13 830.58 255 52 0
-14380.24 8137.71 807.72 255 105 0
-14052.53 7928.67 792.48 255 85 0
-13745.54 7737.14 769.62 255 56 0
-13433.25 7540.44 746.76 255 64 0
-13137.53 7353.83 731.52 255 42 0
-12806.14 7145.14 708.66 255 89 0
-12479.93 6941.53 685.80 255 81 0
-12173.51 6748.45 662.94 255 56 0
-11855.93 6551.75 640.08 255 69 0
-11570.11 6370.58 624.84 255 29 0
-11237.23 6157.66 609.60 255 93 0
-10936.90 5969.32 594.36 255 47 0
-10641.76 5780.99 579.12 255 42 0
-10347.42 5594.12 563.88 255 41 0
-10103.94 5444.01 548.64 255 0 0
-9745.98 5215.99 525.78 255 126 0
-9452.90 5035.08 510.54 255 36 0
-9176.40 4859.68 487.68 255 17 0
-8870.67 4667.55 464.82 255 55 0
-8580.94 4483.02 449.58 255 35 0
-8301.33 4309.95 434.34 255 19 0
-8013.20 4129.21 419.10 255 31 0
-7731.75 3948.55 403.86 255 25 0
-7430.97 3756.51 388.62 255 50 0
-7155.73 3585.69 365.76 255 14 0
-6882.57 3409.00 350.52 255 15 0
-6584.09 3218.17 335.28 255 47 0
-6312.99 3047.61 320.04 255 9 0
-6017.85 2859.27 297.18 255 43 0
-5779.67 2711.66 281.94 255 0 0
-5456.68 2509.01 266.70 255 77 0
-5194.56 2340.08 251.46 255 0 0
-4940.84 2182.29 228.60 255 0 0
-4641.55 1991.37 213.36 255 48 0
-4335.02 1805.62 190.50 255 52 0
-4195.21 1719.09 182.88 255 0 0
-3826.43 1484.08 160.02 255 140 0
-3501.37 1281.34 144.78 255 79 0
-36807.21 2923.12 1783.08 255 0 0
-36087.36 3119.82 1737.36 69 250 0
-35446.91 3300.99 1699.26 142 230 0
-34729.59 3495.54 1661.16 72 249 0
-34028.38 3689.22 1623.06 87 245 0
-33321.18 3877.29 1577.34 82 246 0
-32642.87 4060.54 1539.24 109 239 0
-31907.60 4253.96 1501.14 57 253 0
-31238.96 4424.26 1463.04 120 236 0
-30576.87 4605.18 1424.94 123 235 0
-29862.77 4796.96 1386.84 76 248 0
-29184.00 4981.84 1341.12 108 240 0
-28490.16 5170.18 1310.64 94 243 0
-27832.56 5348.33 1280.16 128 234 0
-27149.07 5531.58 1264.92 105 240 0
-26501.82 5699.55 1242.06 140 231 0
-25840.08 5873.65 1234.44 126 235 0
-25181.45 6050.77 1219.20 128 234 0
-24534.20 6228.92 1211.58 138 231 0
-23886.96 6406.81 1196.34 138 231 0
-23283.55 6572.46 1173.48 178 221 0
-22621.93 6753.63 1150.62 124 235 0
-22018.52 6919.27 1135.38 179 220 0
-21406.72 7084.06 1112.52 171 222 0
-20811.72 7245.39 1097.28 187 218 0
-20226.15 7404.73 1082.04 196 216 0
-19626.08 7566.32 1066.80 182 219 0
-18996.21 7737.14 1043.94 154 227 0
-18465.64 7878.11 1036.32 248 202 0
-17895.26 8037.37 1021.08 209 212 0
-17316.14 8193.70 998.22 202 214 0
-16789.02 8337.60 975.36 250 201 0
-16275.37 8473.65 944.88 255 245 0
-15742.04 8621.27 914.40 243 203 0
-15188.00 8768.88 876.30 225 208 0
-14692.99 8896.65 853.44 255 222 0
-14214.55 8982.66 830.58 255 194 0
-13734.95 9000.18 815.34 255 187 0
-13256.63 8891.04 807.72 255 199 0
-12851.02 8694.77 792.48 255 154 0
-12464.40 8448.20 777.24 255 163 0
-12173.51 8254.78 754.38 255 42 0
-11744.78 7970.08 731.52 255 226 0
-11408.10 7750.86 716.28 255 100 0
-11066.35 7526.89 693.42 255 108 0
-10696.76 7291.97 678.18 255 140 0
-10373.89 7084.92 670.56 255 79 0
-10035.14 6872.69 662.94 255 97 0
-9712.26 6665.63 662.94 255 79 0
-9389.39 6463.75 655.32 255 76 0
-9071.81 6261.88 655.32 255 71 0
-8748.93 6060.00 640.08 255 77 0
-8456.67 5877.70 632.46 255 36 0
-8113.77 5661.42 609.60 255 104 0
-7790.90 5459.54 586.74 255 77 0
-7478.61 5268.01 563.88 255 61 0
-7161.03 5066.13 548.64 255 72 0
-6867.03 4880.04 533.40 255 40 0
-6547.04 4672.73 510.54 255 78 0
-6250.86 4488.11 495.30 255 41 0
-5985.98 4320.74 472.44 255 2 0
-5636.64 4098.15 457.20 255 114 0
-5324.35 3901.45 441.96 255 63 0
-5012.06 3709.92 419.10 255 61 0
-4692.30 3515.90 403.86 255 69 0
-4381.62 3317.38 381.00 255 63 0
-4055.41 3113.78 365.76 255 81 0
-3739.55 2915.26 342.90 255 68 0
-3428.88 2716.75 327.66 255 63 0
-3127.75 2524.53 312.42 255 50 0
-2817.88 2324.81 289.56 255 63 0
-2508.47 2131.13 274.32 255 59 0
-2190.89 1929.25 251.46 255 72 0
-1910.36 1748.08 236.22 255 24 0
-1561.02 1530.67 213.36 255 111 0
-1248.96 1332.24 198.12 255 64 0
-936.44 1132.09 175.26 255 66 0
-661.20 961.27 160.02 255 13 0
-316.93 746.88 144.78 255 104 0
-15.46 557.51 121.92 255 49 0
312.71 350.46 106.68 255 85 0
542.61 202.24 91.44 255 0 0
730.86 86.46 83.82 255 0 0
23807.14 9868.34 3040.38 255 0 0
23175.43 9603.66 3025.14 125 235 0
22590.33 9364.42 3002.28 173 222 0
21834.35 9053.92 2971.80 50 255 0
21188.37 8787.95 2948.94 113 238 0
20489.69 8498.07 2926.08 61 252 0
19840.83 8229.33 2903.22 110 239 0
19209.12 7969.73 2880.36 127 234 0
18499.51 7675.03 2857.50 50 255 0
17906.70 7431.74 2834.64 165 224 0
17215.61 7145.14 2811.78 69 250 0
16573.55 6880.45 2788.92 117 237 0
15910.77 6610.68 2766.06 98 242 0
15294.59 6356.17 2750.82 142 230 0
14598.56 6101.41 2720.34 75 248 0
13932.79 5954.05 2697.48 128 234 0
13270.01 5923.51 2682.24 145 230 0
12633.13 5989.68 2659.38 165 224 0
11989.11 6132.47 2636.52 148 229 0
11369.82 6349.87 2598.42 150 228 0
10750.54 6650.10 2560.32 122 236 0
10132.18 7012.79 2522.22 96 243 0
9601.95 7338.56 2484.12 181 220 0
9049.99 7674.51 2446.02 159 226 0
8495.71 8006.31 2415.54 160 226 0
7952.26 8331.13 2377.44 171 223 0
7382.69 8661.99 2346.96 149 229 0
6859.71 8972.48 2308.86 193 217 0
6310.85 9298.25 2278.38 167 224 0
5798.23 9593.48 2247.90 209 212 0
5261.68 9911.22 2217.42 180 220 0
4684.97 10250.10 2186.94 139 231 0
4213.78 10524.96 2156.46 250 201 0
3659.74 10845.64 2118.36 165 224 0
3080.96 11184.61 2087.88 138 231 0
2615.17 11453.78 2057.40 255 253 0
2048.82 11785.07 2019.30 150 228 0
1474.64 12123.25 1988.82 142 230 0
951.67 12428.66 1958.34 196 216 0
444.23 12723.89 1927.86 213 211 0
-100.14 13042.92 1882.14 173 222 0
-637.96 13355.06 1844.04 181 220 0
-1227.56 13700.32 1790.70 125 235 0
-1751.56 14005.73 1752.60 195 216 0
-2275.57 14311.14 1714.50 195 216 0
-2854.12 14653.03 1684.02 137 232 0
-3377.10 14963.53 1653.54 194 216 0
-3900.53 15273.94 1615.44 193 217 0
-4438.58 15589.61 1584.96 180 220 0
-4987.44 15910.29 1554.48 169 223 0
-5520.19 16221.22 1524.00 186 218 0
-6028.32 16521.45 1493.52 210 212 0
-6541.74 16821.68 1470.66 206 213 0
-7110.40 17152.27 1470.66 150 228 0
-7607.48 17447.50 1470.66 222 209 0
-8120.10 17752.91 1470.66 205 213 0
-8637.89 18083.76 1470.66 189 218 0
-9124.62 18419.71 1470.66 210 212 0
-9611.69 18762.82 1470.66 206 213 0
-10141.00 19119.99 1470.66 167 224 0
-10675.59 19378.80 1470.66 207 213 0
-11252.53 19528.92 1463.04 205 213 0
-11905.18 19564.98 1463.04 154 227 0
-12512.27 19482.33 1440.18 190 217 0
-13065.04 19285.03 1409.70 213 211 0
-13531.06 18994.89 1371.60 247 202 0
-13967.85 18571.29 1348.74 194 216 0
-14296.01 18146.83 1318.26 255 251 0
-14603.01 17712.01 1287.78 255 246 0
-14903.21 17279.53 1249.68 255 240 0
-15201.12 16852.73 1203.96 255 234 0
-15497.53 16428.27 1173.48 255 230 0
-15762.18 16040.04 1173.48 255 176 0
-16021.65 15650.69 1165.86 255 174 0
-16286.19 15248.06 1165.86 255 189 0
-16529.09 14831.19 1165.86 255 190 0
-16679.25 14342.54 1165.86 255 222 0
-16699.04 13850.44 1165.86 255 201 0
-16598.48 13379.39 1173.48 255 189 0
-16399.64 12876.59 1173.48 255 255 0
-16233.95 12423.57 1173.48 255 190 0
-16095.64 11940.36 1165.86 255 212 0
-15910.38 11458.95 1158.24 255 227 0
-15690.26 11069.60 1158.24 255 150 0
-15412.84 10687.67 1158.24 255 178 0
-15110.33 10346.81 1165.86 255 160 0
-14772.38 10025.10 1165.86 255 172 0
-14391.29 9719.69 1165.86 255 196 0
-14007.43 9425.50 1181.10 255 191 0
-13629.44 9150.64 1188.72 255 173 0
-13232.12 8865.59 1173.48 255 197 0
-12780.25 8560.19 1150.62 250 201 0
-12390.53 8311.72 1104.90 255 170 0
-11945.91 8032.20 1051.56 255 241 0
-11543.64 7783.73 990.60 255 183 0
-11109.62 7514.56 944.88 255 224 0
-10703.90 7277.48 899.16 255 178 0
-10315.55 7048.43 845.82 255 158 0
-9918.69 6805.39 807.72 255 172 0
-9528.50 6554.69 762.00 255 171 0
-9130.03 6303.29 731.52 255 178 0
-8727.76 6054.82 685.80 255 181 0
-8358.28 5816.62 655.32 255 143 0
-7992.03 5588.95 632.46 255 133 0
-7626.81 5366.36 609.60 255 129 0
-7298.65 5159.31 594.36 255 85 0
-6965.42 4956.39 579.12 255 87 0
-6647.60 4755.55 556.26 255 72 0
-6335.32 4564.03 541.02 255 60 0
-6017.85 4355.76 525.78 255 75 0
-5684.28 4139.56 510.54 255 95 0
-5396.50 3958.73 480.06 255 32 0
-5091.46 3766.86 457.20 255 54 0
-4790.68 3576.98 434.34 255 49 0
-4493.35 3388.99 419.10 255 44 0
-4190.03 3195.22 403.86 255 53 0
-3879.36 2996.71 388.62 255 63 0
-3577.66 2809.24 373.38 255 48 0
-3286.54 2633.24 350.52 255 32 0
-2983.57 2441.89 327.66 255 52 0
-2678.07 2243.37 320.04 255 58 0
-2362.22 2044.86 304.80 255 68 0
-2072.25 1866.70 289.56 255 31 0
-1788.62 1685.96 266.70 255 27 0
-1528.57 1520.58 243.84 255 0 0
-1254.14 1347.51 228.60 255 14 0
-995.24 1179.54 205.74 255 0 0
-714.13 992.33 182.88 255 29 0
-449.48 826.68 175.26 255 0 0
-171.94 650.17 160.02 255 19 0
107.66 477.11 144.78 255 19 0
-35319.87 11207.04 1432.56 255 0 0
-34714.05 11334.29 1440.18 185 219 0
-34201.44 11441.18 1440.18 255 236 0
-33621.51 11563.34 1440.18 208 212 0
-33119.24 11665.15 1440.18 255 223 0
-32549.67 11782.22 1417.32 218 210 0
-32083.65 11884.02 1394.46 255 184 0
-31551.25 11997.30 1363.98 251 201 0
-31017.00 12107.98 1341.12 250 201 0
-30487.35 12225.06 1310.64 253 201 0
-29991.76 12331.95 1287.78 255 218 0
-29448.08 12449.02 1264.92 241 204 0
-28920.62 12561.52 1242.06 255 254 0
-28412.49 12670.22 1219.20 255 232 0
-27893.77 12778.93 1196.34 255 243 0
-27351.01 12896.95 1165.86 241 204 0
-26840.46 13006.69 1143.00 255 235 0
-26258.46 13131.09 1135.38 206 213 0
-25728.93 13229.27 1135.38 255 252 0
-25243.58 13288.89 1135.38 255 197 0
-24715.43 13329.61 1135.38 255 243 0
-24171.75 13355.06 1135.38 252 201 0
-23632.89 13358.68 1135.38 255 253 0
-23146.51 13278.71 1135.38 255 201 0
-22643.10 13125.75 1135.38 255 239 0
-22178.23 12932.58 1135.38 255 213 0
-21748.58 12711.64 1135.38 255 191 0
-21325.14 12473.52 1135.38 255 193 0
-20917.58 12240.59 1135.38 255 175 0
-20504.72 11997.30 1127.76 255 186 0
-20102.45 11754.01 1112.52 255 176 0
-19679.01 11490.01 1097.28 255 208 0
-19303.21 11246.72 1074.42 255 152 0
-18885.06 10982.73 1043.94 255 204 0
-18498.67 10734.26 1021.08 255 165 0
-18085.81 10470.27 998.22 255 199 0
-17704.49 10229.74 975.36 255 155 0
-17290.25 9970.14 952.50 255 198 0
-16916.06 9730.05 929.64 255 148 0
-16508.49 9476.40 906.78 255 188 0
-16127.40 9238.29 883.92 255 153 0
-15741.01 9000.18 861.06 255 158 0
-15358.87 8758.70 838.20 255 156 0
-14968.23 8508.42 815.34 255 170 0
-14587.36 8275.14 800.10 255 150 0
-14162.77 8005.36 769.62 255 214 0
-13798.47 7773.38 746.76 255 134 0
-13370.54 7501.44 723.90 255 218 0
-12983.35 7260.92 693.42 255 161 0
-12619.74 7033.16 670.56 255 131 0
-12252.91 6800.22 647.70 255 137 0
-11892.98 6572.46 624.84 255 127 0
-11547.90 6361.26 601.98 255 103 0
-11185.45 6132.21 579.12 255 130 0
-10860.85 5925.41 563.88 255 81 0
-10558.91 5740.27 548.64 255 47 0
-10180.92 5501.04 533.40 255 151 0
-9870.25 5302.52 510.54 255 63 0
-9558.76 5107.54 487.68 255 62 0
-9223.00 4895.31 472.44 255 95 0
-8902.43 4693.43 449.58 255 75 0
-8579.56 4486.38 426.72 255 80 0
-8293.73 4305.21 411.48 255 29 0
-7960.27 4098.15 396.24 255 90 0
-7643.73 3897.65 373.38 255 70 0
-7348.58 3709.32 350.52 255 43 0
-7018.12 3497.69 335.28 255 90 0
-6711.12 3306.17 312.42 255 56 0
-6404.13 3114.64 297.18 255 55 0
-6095.52 2915.26 281.94 255 62 0
-5779.55 2716.06 259.08 255 69 0
-5477.85 2524.53 243.84 255 50 0
-5173.85 2334.99 228.60 255 51 0
-4873.52 2146.66 213.36 255 47 0
-4630.97 1996.54 190.50 255 0 0
-4298.77 1785.26 175.26 255 91 0
-4022.27 1603.14 160.02 255 21 0
-3713.66 1413.68 137.16 255 56 0
-3418.87 1225.26 121.92 255 42 0
-3127.75 1044.09 106.68 255 34 0
-2926.61 919.86 99.06 255 0 0
8081.71 -27783.13 3040.38 255 0 0
7771.03 -27065.42 3017.52 50 255 0
7444.82 -26322.27 3002.28 50 255 0
7128.97 -25599.47 2987.04 50 255 0
6813.11 -24881.77 2971.80 50 255 0
6512.79 -24199.70 2933.70 71 249 0
6198.55 -23491.91 2895.60 50 255 0
5880.96 -22777.58 2857.50 50 255 0
5584.56 -22104.65 2819.40 79 247 0
5270.08 -21395.05 2781.30 50 255 0
4959.98 -20696.67 2743.20 54 254 0
4663.57 -20039.27 2705.10 92 244 0
4348.41 -19328.47 2667.00 50 255 0
4048.08 -18651.49 2628.90 75 248 0
3753.17 -17994.61 2590.80 93 243 0
3456.76 -17337.21 2545.08 92 244 0
3144.48 -16633.22 2506.98 50 255 0
2837.48 -15934.41 2468.88 54 254 0
2530.95 -15246.21 2446.02 64 251 0
2249.96 -14604.08 2430.78 111 239 0
1953.55 -13931.15 2423.16 80 247 0
1657.14 -13253.05 2407.92 76 248 0
1355.55 -12599.36 2392.68 94 243 0
1050.05 -12049.63 2377.44 176 221 0
635.82 -11489.72 2362.20 115 238 0
164.62 -10985.80 2324.10 120 236 0
-348.00 -10558.23 2286.00 140 231 0
-941.73 -10167.93 2240.28 101 241 0
-1502.79 -9831.47 2194.56 152 228 0
-2122.08 -9463.94 2148.84 93 244 0
-2714.32 -9097.37 2095.50 113 238 0
-3242.47 -8761.42 2042.16 177 221 0
-3848.29 -8374.58 2004.06 94 243 0
-4398.07 -8019.74 1965.96 152 228 0
-4997.79 -7636.51 1927.86 101 241 0
-5541.48 -7295.48 1897.38 164 224 0
-6150.06 -6917.17 1859.28 96 243 0
-6668.78 -6591.06 1828.80 190 217 0
-7245.72 -6223.54 1790.70 125 235 0
-7827.95 -5871.54 1752.60 129 234 0
-8363.46 -5539.39 1706.88 173 222 0
-8974.46 -5172.90 1668.78 100 242 0
-9495.25 -4856.97 1630.68 193 217 0
-10082.77 -4499.80 1607.82 123 235 0
-10595.16 -4180.33 1592.58 198 215 0
-11183.72 -3811.35 1584.96 117 237 0
-11661.82 -3518.62 1577.34 237 205 0
-12221.04 -3182.68 1554.48 154 227 0
-12723.30 -2882.36 1531.62 215 211 0
-13199.67 -2592.22 1508.76 239 204 0
-13691.57 -2291.91 1485.90 223 209 0
-14183.48 -1991.59 1470.66 223 209 0
-14677.11 -1668.33 1447.80 210 212 0
-15094.80 -1334.97 1417.32 255 249 0
-15492.23 -917.75 1386.84 223 209 0
-15852.16 -431.17 1356.36 197 216 0
-16125.21 59.72 1325.88 236 205 0
-16344.41 593.75 1295.40 222 209 0
-16498.02 1138.82 1264.92 231 206 0
-16586.05 1698.73 1242.06 231 206 0
-16614.35 2276.07 1203.96 220 209 0
-16572.01 2861.00 1181.10 214 211 0
-16455.56 3461.46 1150.62 191 217 0
-16296.08 3968.92 1120.14 255 246 0
-16042.36 4523.74 1089.66 192 217 0
-15773.11 4966.57 1066.80 255 230 0
-15439.30 5407.77 1036.32 243 203 0
-15058.55 5806.44 1005.84 245 203 0
-14624.18 6163.52 975.36 235 205 0
-14209.37 6437.61 952.50 255 207 0
-13719.07 6691.51 922.02 244 203 0
-13199.67 6885.54 899.16 242 203 0
-12692.23 7007.27 868.68 255 235 0
-12178.81 7079.74 845.82 255 231 0
-11687.71 7094.24 822.96 255 200 0
-11183.72 7064.21 800.10 255 215 0
-10693.54 6977.16 769.62 255 208 0
-10225.68 6841.63 746.76 255 196 0
-9749.31 6644.93 723.90 255 227 0
-9294.11 6406.81 693.42 255 226 0
-8881.26 6148.00 670.56 255 196 0
-8531.92 5930.59 647.70 255 111 0
-8114.92 5674.10 632.46 255 198 0
-7736.93 5445.04 609.60 255 145 0
-7364.12 5221.08 594.36 255 137 0
-6996.48 4997.12 563.88 255 133 0
-6647.60 4781.43 541.02 255 110 0
-6245.34 4527.79 510.54 255 183 0
-5906.58 4315.56 495.30 255 98 0
-5567.83 4098.15 480.06 255 101 0
-5255.54 3896.27 457.20 255 67 0
-4943.25 3689.22 434.34 255 70 0
-4630.97 3476.99 411.48 255 73 0
-4303.95 3251.21 396.24 255 95 0
-3995.80 3042.17 373.38 255 68 0
-3672.24 2838.91 358.14 255 78 0
-3360.64 2648.77 335.28 255 59 0
-3050.89 2457.16 312.42 255 58 0
-2745.39 2263.73 289.56 255 56 0
-2419.18 2065.22 274.32 255 78 0
-2092.96 1866.70 251.46 255 78 0
-1788.62 1675.61 236.22 255 53 0
-1481.97 1479.86 220.98 255 58 0
-1166.11 1281.34 198.12 255 68 0
-881.32 1103.19 182.88 255 26 0
-550.05 893.98 160.02 255 89 0
-280.11 717.98 144.78 255 11 0
0.42 541.98 129.54 255 21 0
-35568.65 10076.86 1516.38 255 0 0
-34838.21 10247.68 1478.28 66 251 0
-34139.30 10336.63 1455.42 108 240 0
-33467.32 10356.39 1447.80 137 232 0
-32768.64 10320.15 1432.56 112 238 0
-32094.01 10260.28 1424.94 132 233 0
-31420.88 10204.29 1424.94 134 232 0
-30778.81 10158.48 1424.94 163 225 0
-30180.35 10128.63 1424.94 203 214 0
-29567.17 10097.40 1417.32 189 218 0
-28968.25 10066.51 1394.46 202 214 0
-28365.89 10036.31 1371.60 199 215 0
-27760.07 10005.77 1341.12 195 216 0
-27169.78 9975.23 1303.02 209 212 0
-26600.20 9944.69 1280.16 228 207 0
-25951.23 9906.04 1249.68 156 226 0
-25404.10 9873.43 1219.20 248 202 0
-24782.74 9837.80 1196.34 181 220 0
-24176.92 9802.17 1173.48 195 216 0
-23565.93 9766.54 1143.00 190 217 0
-23008.32 9730.05 1112.52 238 205 0
-22416.42 9695.28 1089.66 208 213 0
-21806.80 9657.58 1059.18 192 217 0
-21189.25 9618.93 1028.70 184 219 0
-20598.96 9578.21 998.22 209 212 0
-19982.78 9537.48 982.98 186 219 0
-19454.63 9501.85 975.36 255 242 0
-18838.46 9461.13 975.36 186 218 0
-18334.58 9429.82 967.74 255 215 0
-17757.65 9388.40 967.74 221 209 0
-17212.47 9346.99 975.36 250 201 0
-16694.79 9308.43 975.36 255 231 0
-16196.21 9279.70 975.36 255 209 0
-15698.66 9253.82 975.36 255 207 0
-15146.58 9226.99 975.36 244 203 0
-14634.77 9196.88 975.36 255 224 0
-14121.34 9124.41 975.36 255 230 0
-13682.02 9005.35 975.36 255 159 0
-13205.65 8819.00 982.98 255 222 0
-12800.97 8616.18 982.98 255 156 0
-12406.41 8384.19 975.36 255 162 0
-12035.90 8156.43 975.36 255 137 0
-11661.82 7918.83 975.36 255 146 0
-11316.05 7695.73 975.36 255 110 0
-10973.15 7470.90 967.74 255 109 0
-10617.37 7250.56 937.26 255 120 0
-10284.48 7043.34 906.78 255 90 0
-9939.86 6826.10 876.30 255 107 0
-9626.88 6641.22 853.44 255 58 0
-9300.67 6442.70 807.72 255 80 0
-8960.65 6230.82 762.00 255 101 0
-8616.61 6008.23 708.66 255 112 0
-8288.44 5801.18 670.56 255 86 0
-7954.98 5599.30 647.70 255 87 0
-7600.35 5381.89 624.84 255 116 0
-7282.77 5185.19 586.74 255 70 0
-6939.53 4961.48 533.40 255 112 0
-6599.97 4740.02 487.68 255 107 0
-6287.68 4532.97 457.20 255 71 0
-5954.22 4320.74 441.96 255 93 0
-5626.05 4103.33 419.10 255 91 0
-5292.59 3891.10 403.86 255 93 0
-4982.26 3699.14 388.62 255 59 0
-4641.55 3487.34 373.38 255 99 0
-4355.73 3306.17 358.14 255 29 0
-4003.63 3083.24 342.90 255 117 0
-3704.69 2886.88 320.04 255 51 0
-3371.92 2670.94 304.80 255 94 0
-3058.94 2472.77 281.94 255 65 0
-2724.67 2263.73 266.70 255 92 0
-2388.11 2049.95 251.46 255 97 0
-2074.44 1846.43 228.60 255 69 0
-1751.22 1642.74 205.74 255 78 0
-1445.72 1449.32 190.50 255 55 0
-1105.82 1235.62 167.64 255 100 0
-793.30 1042.11 144.78 255 62 0
-492.98 853.77 129.54 255 47 0
-197.83 665.44 114.30 255 42 0
164.51 438.46 91.44 255 129 0
8195.62 -28057.99 3040.38 255 0 0
7871.14 -27322.43 3025.14 50 255 0
7538.02 -26566.59 3002.28 50 255 0
7191.10 -25792.90 2979.42 50 255 0
6876.05 -25070.71 2956.56 50 255 0
6549.04 -24342.22 2926.08 50 255 0
6225.01 -23610.97 2887.98 50 255 0
5891.55 -22844.87 2849.88 50 255 0
5575.58 -22138.21 2804.16 50 255 0
5254.55 -21405.23 2766.06 50 255 0
4959.98 -20743.26 2720.34 89 245 0
4648.73 -20025.82 2682.24 50 255 0
4312.16 -19262.30 2636.52 50 255 0
4032.55 -18615.86 2590.80 107 240 0
3705.53 -17849.67 2552.70 50 255 0
3430.30 -17202.62 2506.98 108 239 0
3131.59 -16503.47 2468.88 57 253 0
2826.09 -15801.03 2438.40 52 254 0
2536.12 -15124.05 2415.54 79 247 0
2212.90 -14391.85 2385.06 50 255 0
1925.13 -13739.54 2354.58 100 242 0
1645.52 -13103.28 2346.96 117 237 0
1334.84 -12461.93 2339.34 101 241 0
967.20 -11871.48 2346.96 116 237 0
552.97 -11357.38 2346.96 148 229 0
58.65 -10882.27 2346.96 125 235 0
-399.77 -10527.69 2339.34 220 209 0
-979.71 -10161.20 2324.10 124 235 0
-1528.57 -9845.62 2316.48 172 222 0
-2047.97 -9536.41 2301.24 198 215 0
-2556.10 -9220.66 2270.76 203 214 0
-3087.13 -8893.77 2247.90 180 220 0
-3579.04 -8578.18 2217.42 215 211 0
-4096.83 -8247.32 2186.94 188 218 0
-4625.67 -7911.03 2156.46 177 221 0
-5133.80 -7584.92 2133.60 198 215 0
-5641.93 -7269.16 2103.12 203 214 0
-6173.19 -6934.08 2080.26 176 221 0
-6706.52 -6603.22 2049.78 176 221 0
-7193.25 -6297.82 2026.92 224 208 0
-7753.85 -5944.01 1996.44 145 230 0
-8218.48 -5651.37 1973.58 247 202 0
-8743.64 -5322.85 1943.10 184 219 0
-9254.07 -5004.93 1912.62 200 215 0
-9754.61 -4691.33 1889.76 210 212 0
-10320.96 -4344.51 1851.66 143 230 0
-10791.92 -4053.08 1821.18 243 203 0
-11351.14 -3706.96 1783.08 149 228 0
-11868.94 -3386.28 1752.60 193 217 0
-12355.66 -3080.87 1722.12 224 208 0
-12920.06 -2729.66 1684.02 143 230 0
-13437.85 -2403.89 1653.54 191 217 0
-13940.12 -2088.30 1615.44 207 213 0
-14483.80 -1752.36 1584.96 166 224 0
-14973.52 -1445.74 1562.10 221 209 0
-15519.39 -1105.91 1531.62 163 225 0
-16042.36 -780.15 1508.76 187 218 0
-16586.05 -439.11 1478.28 164 224 0
-17122.48 -105.06 1455.42 173 222 0
-17651.79 221.05 1424.94 182 220 0
-18139.43 528.01 1394.46 223 209 0
-18694.51 868.10 1371.60 156 227 0
-19180.20 1164.27 1341.12 229 207 0
-19694.89 1530.67 1310.64 173 222 0
-20101.88 1943.06 1287.78 220 209 0
-20446.50 2498.65 1264.92 153 227 0
-20630.03 3047.61 1234.44 220 209 0
-20686.99 3683.87 1203.96 166 224 0
-20605.29 4258.62 1181.10 219 210 0
-20391.84 4829.14 1150.62 193 217 0
-20112.23 5368.69 1127.76 195 216 0
-19806.04 5909.88 1104.90 182 220 0
-19509.63 6417.17 1097.28 213 211 0
-19216.45 6921.17 1074.42 217 210 0
-18900.94 7462.79 1059.18 178 221 0
-18595.09 7923.92 1043.94 244 203 0
-18186.38 8342.78 1021.08 215 211 0
-17736.47 8622.30 1005.84 255 243 0
-17186.69 8804.51 990.60 220 209 0
-16627.47 8870.68 967.74 235 205 0
-16094.14 8896.13 952.50 255 248 0
-15565.99 8906.31 937.26 255 241 0
-14984.11 8927.71 922.02 218 210 0
-14454.80 8943.24 899.16 255 243 0
-13951.97 8943.24 883.92 255 213 0
-13427.96 8850.06 876.30 255 245 0
-12962.17 8684.42 861.06 255 203 0
-12511.00 8458.38 845.82 255 215 0
-12078.24 8197.84 822.96 255 216 0
-11686.56 7944.20 800.10 255 173 0
-11252.76 7664.33 769.62 255 229 0
-10833.35 7389.46 746.76 255 212 0
-10393.22 7104.42 716.28 255 238 0
-9968.63 6829.55 693.42 255 216 0
-9538.86 6554.69 670.56 255 221 0
-9119.44 6292.93 647.70 255 204 0
-8701.30 6028.94 624.84 255 204 0
-8296.15 5775.90 601.98 255 185 0
-7886.17 5521.65 579.12 255 190 0
-7441.56 5242.13 548.64 255 238 0
-7068.97 5007.30 525.78 255 143 0
-6647.60 4740.02 502.92 255 209 0
-6240.50 4483.02 480.06 255 189 0
-5864.24 4243.09 457.20 255 150 0
-5477.85 4004.98 434.34 255 158 0
-5091.00 3760.22 411.48 255 163 0
-4707.83 3520.99 388.62 255 156 0
-4334.56 3290.64 365.76 255 141 0
-3964.05 3057.70 350.52 255 140 0
-3651.53 2864.36 320.04 255 63 0
-3297.13 2643.59 297.18 255 118 0
-2953.08 2421.01 274.32 255 109 0
-2652.18 2228.10 259.08 255 50 0
-2325.97 2019.41 243.84 255 84 0
-2016.22 1820.55 228.60 255 62 0
-1704.62 1622.38 205.74 255 64 0
-1388.76 1418.78 190.50 255 71 0
-1067.73 1220.26 167.64 255 73 0
-761.77 1023.39 152.40 255 58 0
-472.27 838.50 129.54 255 35 0
-158.37 645.51 114.30 255 63 0
128.38 466.93 99.06 255 29 0
361.38 319.31 76.20 255 0 0
767.91 60.58 68.58 255 189 0
767.91 60.58 68.58 255 0 0
9417.62 -30832.10 3040.38 255 0 0
9086.23 -30088.94 3025.14 50 255 0
8744.49 -29315.25 3017.52 50 255 0
8407.92 -28556.82 3009.90 50 255 0
8082.86 -27819.36 3017.52 50 255 0
7760.68 -27085.78 3009.90 50 255 0
7463.58 -26421.74 3002.28 87 245 0
7103.08 -25604.56 2971.80 50 255 0
6807.24 -24925.77 2933.70 75 248 0
6484.37 -24185.55 2895.60 50 255 0
6181.40 -23492.17 2865.12 61 252 0
5859.79 -22751.69 2827.02 50 255 0
5539.33 -22016.04 2788.92 50 255 0
5208.75 -21266.07 2743.20 50 255 0
4907.05 -20572.44 2705.10 61 252 0
4602.13 -19883.29 2667.00 63 251 0
4271.89 -19148.94 2621.28 50 255 0
3954.31 -18429.42 2583.18 50 255 0
3639.03 -17714.91 2537.46 50 255 0
3324.44 -17005.92 2499.36 50 255 0
3028.03 -16338.17 2468.88 84 246 0
2701.82 -15602.52 2446.02 50 255 0
2417.03 -14961.17 2430.78 110 239 0
2085.87 -14210.68 2415.54 50 255 0
1790.50 -13541.03 2400.30 83 246 0
1500.53 -12904.77 2392.68 113 238 0
1164.89 -12259.19 2377.44 87 245 0
767.91 -11674.26 2362.20 106 240 0
318.00 -11161.79 2346.96 128 234 0
-179.54 -10721.80 2324.10 144 230 0
-756.48 -10307.69 2301.24 103 241 0
-1362.87 -9942.33 2286.00 105 240 0
-1885.85 -9621.65 2263.14 189 218 0
-2466.12 -9262.07 2247.90 128 234 0
-3027.18 -8910.07 2225.04 146 229 0
-3568.68 -8568.00 2202.18 165 224 0
-4138.72 -8206.09 2171.70 134 233 0
-4723.36 -7835.03 2141.22 118 237 0
-5235.98 -7514.35 2110.74 197 216 0
-5810.73 -7152.95 2080.26 130 233 0
-6364.77 -6806.83 2049.78 153 227 0
-6918.81 -6470.88 2026.92 158 226 0
-7441.56 -6151.07 1996.44 190 218 0
-8002.62 -5804.25 1965.96 148 229 0
-8553.09 -5462.61 1935.48 158 226 0
-9083.20 -5132.18 1905.00 179 220 0
-9600.99 -4806.42 1882.14 191 217 0
-10196.46 -4434.84 1844.04 109 239 0
-10698.72 -4119.25 1821.18 208 213 0
-11263.11 -3764.76 1790.70 142 230 0
-11806.80 -3421.91 1760.22 163 225 0
-12353.48 -3076.30 1729.74 159 226 0
-12847.57 -2760.20 1706.88 214 211 0
-13386.07 -2414.07 1668.78 165 224 0
-13924.58 -2067.94 1638.30 165 224 0
-14442.38 -1732.00 1607.82 186 219 0
-14999.98 -1373.27 1577.34 145 230 0
-15483.14 -1060.10 1554.48 223 209 0
-16006.12 -729.25 1531.62 185 219 0
-16518.73 -408.57 1501.14 197 216 0
-17052.06 -82.80 1470.66 179 220 0
-17551.22 221.05 1455.42 216 211 0
-18082.48 548.37 1447.80 180 220 0
-18541.01 821.51 1447.80 255 247 0
-19065.02 1132.09 1455.42 194 216 0
-19521.95 1428.96 1447.80 251 201 0
-19954.25 1810.20 1417.32 222 209 0
-20298.64 2299.36 1371.60 202 214 0
-20500.58 2798.19 1341.12 255 253 0
-20593.78 3388.64 1303.02 203 214 0
-20536.48 3994.62 1264.92 193 217 0
-20371.13 4518.65 1226.82 246 202 0
-20091.87 5076.49 1196.34 180 220 0
-19806.04 5588.95 1165.86 213 211 0
-19496.06 6137.30 1150.62 175 221 0
-19211.27 6646.31 1143.00 217 210 0
-18916.82 7167.74 1143.00 203 214 0
-18636.52 7633.79 1150.62 252 201 0
-18279.24 8122.44 1150.62 197 216 0
-17916.44 8549.83 1150.62 237 205 0
-17523.26 8977.57 1150.62 219 210 0
-17155.62 9369.51 1150.62 255 251 0
-16787.99 9751.27 1135.38 255 243 0
-16402.63 10128.63 1112.52 255 254 0
-15943.98 10423.16 1097.28 251 201 0
-15488.32 10575.86 1089.66 255 188 0
-14996.42 10616.59 1066.80 255 203 0
-14475.98 10522.03 1036.32 255 243 0
-14017.78 10306.09 998.22 255 218 0
-13623.80 9973.33 952.50 255 229 0
-13308.41 9624.02 914.40 255 178 0
-12966.66 9226.99 883.92 255 237 0
-12640.45 8860.50 868.68 255 199 0
-12321.72 8508.42 861.06 255 181 0
-11998.38 8188.61 838.20 255 159 0
-11620.39 7883.20 815.34 255 194 0
-11220.77 7607.73 792.48 255 194 0
-10807.46 7353.83 769.62 255 193 0
-10445.00 7134.96 746.76 255 124 0
-10051.01 6888.22 723.90 255 171 0
-9664.62 6644.93 693.42 255 162 0
-9264.43 6391.80 670.56 255 180 0
-8881.26 6152.57 647.70 255 156 0
-8542.50 5940.94 624.84 255 98 0
-8171.99 5708.00 601.98 255 140 0
-7780.31 5459.54 579.12 255 170 0
-7441.56 5247.31 563.88 255 98 0
-7097.51 5024.72 548.64 255 109 0
-6784.19 4824.05 525.78 255 67 0
-6462.35 4615.79 502.92 255 80 0
-6134.18 4408.73 487.68 255 85 0
-5800.72 4201.68 464.82 255 90 0
-5484.52 4004.55 441.96 255 68 0
-5158.31 3800.94 426.72 255 81 0
-4852.81 3607.52 403.86 255 56 0
-4540.98 3409.69 388.62 255 64 0
-4218.11 3207.82 373.38 255 77 0
-3937.58 3031.82 358.14 255 21 0
-3604.12 2819.59 335.28 255 93 0
-3307.71 2633.24 312.42 255 43 0
-2993.93 2431.70 297.18 255 68 0
-2699.01 2245.01 281.94 255 41 0
-2346.68 2029.59 259.08 255 113 0
-2056.72 1841.25 243.84 255 37 0
-1735.69 1634.20 220.98 255 78 0
-1439.28 1447.85 205.74 255 42 0
-1124.69 1255.89 182.88 255 63 0
-845.08 1072.65 160.02 255 25 0
-528.88 868.10 144.78 255 72 0
-228.90 685.80 129.54 255 43 0
69.23 505.75 114.30 255 40 0
-36655.78 4513.56 1866.90 255 0 0
-36034.43 4641.67 1836.42 170 223 0
-35397.54 4768.06 1805.94 157 226 0
-34705.88 4910.84 1767.84 106 240 0
-34056.45 5048.02 1737.36 144 230 0
-33393.68 5180.36 1714.50 133 233 0
-32741.25 5312.70 1699.26 143 230 0
-32054.08 5454.36 1684.02 110 239 0
-31446.77 5582.48 1668.78 183 219 0
-30820.23 5709.73 1653.54 166 224 0
-30172.99 5847.16 1638.30 146 229 0
-29566.36 5972.00 1623.06 184 219 0
-28976.88 6091.49 1607.82 200 215 0
-28354.26 6220.46 1600.20 170 223 0
-27749.71 6340.90 1584.96 187 218 0
-27169.78 6457.97 1569.72 209 212 0
-26607.57 6567.28 1562.10 226 208 0
-26030.63 6687.03 1546.86 211 212 0
-25450.70 6804.10 1531.62 209 212 0
-24875.95 6916.08 1524.00 215 211 0
-24347.80 7028.07 1524.00 255 254 0
-23767.87 7145.14 1516.38 209 212 0
-23250.07 7252.03 1508.76 255 241 0
-22721.92 7364.01 1485.90 255 254 0
-22235.19 7460.72 1463.04 255 206 0
-21706.24 7566.32 1432.56 255 254 0
-21198.11 7669.85 1402.08 255 231 0
-20707.70 7766.13 1371.60 255 210 0
-20200.26 7867.93 1341.12 255 230 0
-19694.89 7970.08 1318.26 255 227 0
-19170.88 8078.78 1287.78 255 250 0
-18683.12 8173.34 1257.30 255 207 0
-18170.50 8275.48 1226.82 255 236 0
-17630.61 8384.19 1203.96 246 202 0
-17145.27 8478.74 1173.48 255 204 0
-16640.82 8575.71 1150.62 255 225 0
-16159.15 8674.07 1120.14 255 201 0
-15654.02 8773.97 1097.28 255 227 0
-15146.58 8875.77 1066.80 255 230 0
-14655.94 8974.29 1043.94 255 210 0
-14136.88 9038.65 1021.08 255 236 0
-13660.51 9018.29 998.22 255 184 0
-13194.49 8870.68 967.74 255 198 0
-12776.92 8637.83 937.26 255 186 0
-12358.77 8342.78 914.40 255 223 0
-11945.91 8063.25 883.92 255 209 0
-11527.19 7801.76 853.44 255 203 0
-11102.60 7542.17 815.34 255 208 0
-10678.01 7272.39 777.24 255 214 0
-10253.41 7002.61 746.76 255 214 0
-9823.41 6738.10 723.90 255 215 0
-9409.41 6478.33 693.42 255 198 0
-8979.64 6208.56 670.56 255 218 0
-8600.73 5972.00 647.70 255 150 0
-8240.80 5749.41 624.84 255 124 0
-7790.90 5469.89 594.36 255 243 0
-7421.08 5236.35 571.50 255 140 0
-7053.44 5002.21 548.64 255 138 0
-6679.36 4765.90 525.78 255 146 0
-6344.06 4554.28 502.92 255 94 0
-5981.61 4320.13 480.06 255 134 0
-5626.05 4098.15 464.82 255 119 0
-5292.59 3885.92 441.96 255 93 0
-4971.90 3688.96 419.10 255 72 0
-4662.72 3492.52 403.86 255 60 0
-4345.37 3291.93 388.62 255 71 0
-4032.85 3099.11 365.76 255 62 0
-3729.20 2905.08 350.52 255 54 0
-3444.41 2721.84 327.66 255 30 0
-3154.44 2538.60 312.42 255 34 0
-2852.51 2343.36 289.56 255 53 0
-2569.34 2161.93 274.32 255 27 0
-2270.28 1970.66 259.08 255 48 0
-1963.52 1780.17 236.22 255 55 0
-1735.69 1632.56 228.60 255 0 0
-1388.76 1413.68 213.36 255 109 0
-1083.26 1220.26 190.50 255 56 0
-767.41 1026.84 167.64 255 65 0
-482.62 848.68 152.40 255 26 0
-216.59 676.57 137.16 255 5 0
79.82 490.22 121.92 255 42 0
459.77 253.14 99.06 255 152 0
720.27 86.46 91.44 255 0 0
-30012.47 21738.45 1493.52 255 0 0
-29634.48 21132.73 1455.42 99 242 0
-29275.25 20548.66 1417.32 124 235 0
-28925.91 19999.97 1386.84 156 227 0
-28544.81 19404.69 1348.74 105 240 0
-28147.84 18871.52 1310.64 143 230 0
-27708.29 18368.81 1280.16 140 231 0
-27232.14 17893.18 1249.68 136 232 0
-26734.60 17448.02 1211.58 140 231 0
-26173.54 17013.20 1181.10 103 241 0
-25600.86 16612.72 1143.00 112 238 0
-25010.57 16230.97 1112.52 109 239 0
-24437.43 15874.40 1074.42 134 233 0
-23871.08 15527.58 1043.94 144 230 0
-23283.55 15170.41 1021.08 123 235 0
-22696.03 14818.42 990.60 125 235 0
-22173.06 14500.33 960.12 190 217 0
-21551.70 14123.66 929.64 88 245 0
-20996.97 13777.97 899.16 153 227 0
-20412.55 13411.05 868.68 120 236 0
-19890.73 13079.16 845.82 185 219 0
-19313.79 12711.64 838.20 126 235 0
-18734.90 12347.22 838.20 126 234 0
-18201.57 12006.18 838.20 172 222 0
-17598.86 11629.77 838.20 103 241 0
-17058.97 11293.31 838.20 169 223 0
-16529.09 10967.80 838.20 182 220 0
-15926.26 10594.50 838.20 104 241 0
-15400.30 10260.28 838.20 181 220 0
-14846.26 9903.97 838.20 149 228 0
-14322.48 9569.58 830.58 183 219 0
-13753.71 9201.54 838.20 132 233 0
-13241.09 8880.86 838.20 198 215 0
-12723.99 8565.36 838.20 197 216 0
-12231.74 8259.96 830.58 220 209 0
-11718.31 7944.20 822.96 199 215 0
-11241.94 7638.79 792.48 232 206 0
-10760.28 7333.38 762.00 228 207 0
-10289.20 7043.51 731.52 243 203 0
-9823.64 6748.11 701.04 245 203 0
-9368.22 6463.75 678.18 255 251 0
-8934.19 6184.23 655.32 255 228 0
-8498.09 5913.33 624.84 255 225 0
-8071.43 5640.71 601.98 255 217 0
-7690.33 5402.60 579.12 255 153 0
-7256.30 5128.25 556.26 255 225 0
-6856.68 4869.86 533.40 255 183 0
-6494.11 4641.67 510.54 255 130 0
-6102.42 4393.21 487.68 255 170 0
-5731.91 4155.09 464.82 255 143 0
-5370.61 3928.19 441.96 255 128 0
-4987.44 3688.96 419.10 255 156 0
-4624.98 3465.00 396.24 255 127 0
-4255.16 3233.70 373.38 255 139 0
-3920.78 3022.16 358.14 255 93 0
-3614.71 2829.94 335.28 255 55 0
-3283.89 2614.95 320.04 255 92 0
-2952.50 2406.25 297.18 255 89 0
-2640.79 2208.78 274.32 255 64 0
-2269.01 1978.69 243.84 255 140 0
-1963.29 1789.49 228.60 255 53 0
-1608.65 1566.91 213.36 255 119 0
-1285.20 1357.69 198.12 255 81 0
-968.20 1157.97 175.26 255 70 0
-624.15 940.56 152.40 255 106 0
-296.22 731.61 129.54 255 86 0
-20.75 557.51 106.68 255 16 0
356.21 319.31 83.82 255 150 0
640.88 138.23 76.20 255 28 0
1277.88 -30302.73 3040.38 255 0 0
894.94 -29641.45 3040.38 54 254 0
487.38 -28937.46 3032.76 50 255 0
111.58 -28280.06 3032.76 61 252 0
-275.50 -27604.97 3009.90 50 255 0
-663.85 -26933.08 2971.80 50 255 0
-1010.54 -26328.57 2918.46 113 238 0
-1391.64 -25671.17 2872.74 57 253 0
-1766.75 -25009.02 2819.40 56 253 0
-2160.28 -24321.86 2758.44 50 255 0
-2519.05 -23688.62 2712.72 86 245 0
-2895.55 -23028.97 2667.00 57 253 0
-3299.43 -22321.45 2606.04 50 255 0
-3630.82 -21731.00 2560.32 131 233 0
-4029.52 -21043.84 2506.98 50 255 0
-4397.15 -20392.30 2461.26 68 250 0
-4768.58 -19744.22 2407.92 68 250 0
-5111.71 -19135.05 2354.58 111 239 0
-5493.73 -18460.48 2301.24 50 255 0
-5858.95 -17813.43 2247.90 72 249 0
-6218.87 -17181.92 2202.18 87 245 0
-6584.09 -16545.22 2148.84 80 247 0
-6949.88 -15907.92 2110.74 80 247 0
-7314.52 -15282.19 2065.02 89 245 0
-7706.21 -14604.08 2026.92 50 255 0
-8060.84 -13998.45 1988.82 110 239 0
-8415.47 -13387.64 1965.96 106 240 0
-8767.34 -12787.69 1935.48 116 237 0
-9092.98 -12222.95 1912.62 155 227 0
-9461.19 -11601.70 1889.76 92 244 0
-9796.95 -11022.03 1866.90 139 231 0
-10098.08 -10502.24 1859.28 201 214 0
-10432.11 -9914.29 1836.42 133 233 0
-10744.40 -9375.95 1821.18 182 220 0
-11050.82 -8827.60 1798.32 176 221 0
-11337.22 -8325.14 1760.22 220 209 0
-11612.45 -7848.92 1722.12 246 203 0
-11892.98 -7341.63 1676.40 219 210 0
-12194.69 -6808.47 1630.68 189 218 0
-12464.40 -6328.36 1577.34 244 203 0
-12728.48 -5844.80 1531.62 244 203 0
-13004.52 -5348.73 1485.90 229 207 0
-13287.69 -4836.96 1440.18 214 211 0
-13581.46 -4297.92 1386.84 187 218 0
-13846.91 -3824.03 1341.12 251 201 0
-14126.52 -3304.84 1287.78 209 212 0
-14385.42 -2841.64 1242.06 255 246 0
-14655.94 -2341.26 1203.96 229 207 0
-14931.18 -1849.50 1165.86 233 206 0
-15213.89 -1334.97 1127.76 212 211 0
-15471.06 -871.17 1089.66 255 245 0
-15757.58 -357.67 1051.56 212 212 0
-16032.01 136.07 1013.46 232 206 0
-16286.19 635.16 975.36 237 205 0
-16466.15 1173.50 937.26 230 207 0
-16529.67 1654.90 914.40 255 194 0
-16487.32 2281.25 883.92 176 221 0
-16323.24 2824.76 868.68 231 207 0
-16085.05 3316.52 853.44 250 201 0
-15824.89 3760.22 838.20 255 226 0
-15483.14 4167.43 822.96 255 245 0
-15079.38 4491.56 800.10 255 230 0
-14613.59 4745.20 784.86 255 244 0
-14162.77 4966.57 777.24 255 212 0
-13712.29 5160.00 762.00 255 199 0
-13266.98 5322.88 739.14 255 181 0
-12795.79 5460.31 716.28 255 200 0
-12321.72 5578.59 701.04 255 197 0
-11871.81 5676.95 678.18 255 166 0
-11416.61 5770.12 662.94 255 170 0
-10977.29 5868.47 640.08 255 154 0
-10543.26 5961.65 624.84 255 147 0
-10066.89 6044.47 601.98 255 192 0
-9683.84 6081.31 579.12 255 81 0
-9223.00 6081.31 556.26 255 166 0
-8839.83 6010.05 541.02 255 87 0
-8436.64 5837.41 518.16 255 141 0
-8109.74 5658.83 502.92 255 67 0
-7775.02 5464.71 495.30 255 83 0
-7462.50 5266.89 495.30 255 64 0
-7131.11 5053.11 495.30 255 91 0
-6830.79 4864.77 495.30 255 47 0
-6530.47 4676.44 495.30 255 47 0
-6176.53 4455.32 495.30 255 117 0
-5864.24 4248.27 487.68 255 69 0
-5546.66 4036.04 464.82 255 78 0
-5192.03 3813.45 441.96 255 119 0
-4879.74 3621.93 419.10 255 61 0
-4546.28 3414.87 396.24 255 90 0
-4207.52 3202.64 373.38 255 98 0
-3874.18 2996.71 350.52 255 89 0
-3558.32 2788.01 327.66 255 74 0
-3228.32 2581.47 304.80 255 86 0
-2916.26 2390.98 289.56 255 60 0
-2579.69 2182.29 266.70 255 94 0
-2300.08 1999.05 251.46 255 25 0
-1989.41 1790.35 228.60 255 70 0
-1658.02 1576.57 213.36 255 92 0
-1354.59 1390.91 198.12 255 49 0
-1058.18 1209.74 175.26 255 40 0
-736.34 1006.48 152.40 255 77 0
-441.20 823.23 137.16 255 39 0
-131.90 624.81 121.92 255 62 0
174.98 431.30 106.68 255 56 0
475.30 248.05 91.44 255 44 0
730.86 86.46 76.20 255 0 0
-32202.29 -5053.68 3040.38 255 0 0
-31374.28 -4994.75 3032.76 50 255 0
-30540.28 -4934.62 3017.52 50 255 0
-29783.38 -4882.85 3002.28 59 253 0
-28941.79 -4820.74 2994.66 50 255 0
-28211.35 -4758.62 2979.42 82 246 0
-27375.06 -4686.15 2964.18 50 255 0
-26612.86 -4618.86 2948.94 53 254 0
-25840.08 -4556.74 2918.46 50 255 0
-25104.35 -4499.80 2880.36 77 248 0
-24347.80 -4450.11 2849.88 59 253 0
-23579.96 -4396.28 2811.78 50 255 0
-22844.23 -4349.69 2781.30 78 247 0
-22071.45 -4297.92 2743.20 50 255 0
-21313.52 -4251.60 2712.72 58 253 0
-20619.67 -4215.97 2682.24 116 237 0
-19821.92 -4168.52 2644.14 50 255 0
-19139.12 -4132.28 2613.66 126 235 0
-18324.00 -4085.69 2575.56 50 255 0
-17631.99 -4047.99 2545.08 118 237 0
-16886.37 -4002.18 2506.98 69 250 0
-16132.69 -3961.46 2476.50 62 252 0
-15375.79 -3925.23 2438.40 59 252 0
-14682.40 -3930.40 2407.92 117 237 0
-13920.21 -4028.75 2369.82 50 255 0
-13237.41 -4204.75 2346.96 107 240 0
-12565.20 -4468.74 2324.10 92 244 0
-11961.79 -4784.50 2308.86 129 234 0
-11361.50 -5167.81 2293.62 101 241 0
-10792.04 -5535.08 2278.38 132 233 0
-10170.57 -5931.33 2263.14 79 247 0
-9643.45 -6264.95 2247.90 180 220 0
-9071.81 -6622.12 2232.66 135 232 0
-8484.28 -6989.64 2225.04 118 237 0
-7923.34 -7336.20 2209.80 148 229 0
-7390.01 -7672.14 2194.56 174 222 0
-6820.43 -8023.36 2179.32 140 231 0
-6314.14 -8340.67 2164.08 204 214 0
-5764.13 -8679.98 2141.22 160 225 0
-5199.73 -9031.20 2110.74 143 230 0
-4715.65 -9334.54 2087.88 227 207 0
-4181.06 -9676.18 2057.40 170 223 0
-3625.29 -10033.35 2026.92 147 229 0
-3101.28 -10374.99 1988.82 178 221 0
-2598.45 -10711.45 1965.96 197 216 0
-2090.32 -11047.91 1958.34 193 217 0
-1595.88 -11372.65 1927.86 209 212 0
-1098.80 -11693.32 1889.76 208 213 0
-586.18 -12024.18 1844.04 191 217 0
-105.44 -12326.48 1790.70 228 207 0
413.16 -12655.35 1744.98 188 218 0
900.24 -12958.00 1691.64 224 208 0
1371.31 -13253.05 1638.30 239 204 0
1857.81 -13561.39 1584.96 221 209 0
2334.64 -13863.86 1531.62 231 206 0
2846.80 -14192.56 1470.66 191 217 0
3366.78 -14521.26 1424.94 187 218 0
3866.86 -14833.91 1379.22 209 212 0
4314.23 -15111.37 1333.50 255 241 0
4811.78 -15370.19 1280.16 235 205 0
5368.46 -15546.53 1226.82 214 211 0
5986.82 -15603.12 1181.10 182 220 0
6574.92 -15521.08 1150.62 207 213 0
7108.94 -15328.77 1120.14 230 207 0
7542.97 -15069.96 1089.66 255 216 0
7992.88 -14671.38 1036.32 199 215 0
8382.03 -14146.75 1013.46 154 227 0
8675.68 -13687.86 1005.84 251 201 0
8993.26 -13180.58 998.22 203 214 0
9288.17 -12721.52 998.22 251 201 0
9459.04 -12461.06 998.22 255 0 0
9861.31 -11870.96 990.60 99 242 0
10163.24 -11433.73 967.74 255 245 0
10453.21 -10995.98 952.50 255 238 0
10708.20 -10607.92 937.26 255 170 0
10971.00 -10207.01 906.78 255 187 0
11250.61 -9743.81 861.06 253 201 0
11428.05 -9282.77 822.96 255 204 0
11488.80 -8847.96 784.86 255 143 0
11462.91 -8318.59 762.00 255 243 0
11412.17 -7957.62 746.76 255 58 0
11253.38 -7434.81 723.90 250 201 0
11057.53 -6984.46 693.42 255 200 0
10836.38 -6582.86 655.32 255 165 0
10559.99 -6233.89 617.22 255 150 0
10178.89 -5892.25 586.74 255 224 0
9805.97 -5636.10 556.26 255 157 0
9448.69 -5407.05 525.78 255 126 0
9009.14 -5146.85 502.92 255 222 0
8640.93 -4923.49 472.44 255 133 0
8257.53 -4680.98 449.58 255 158 0
7916.01 -4465.38 426.72 255 103 0
7606.49 -4266.87 411.48 255 62 0
7214.80 -4013.22 388.62 255 173 0
6886.64 -3800.99 373.38 255 88 0
6500.25 -3562.88 350.52 255 158 0
6176.22 -3360.83 335.28 255 78 0
5843.91 -3153.95 312.42 255 89 0
5483.99 -2926.19 289.56 255 127 0
5249.37 -2775.47 274.32 255 0 0
4824.78 -2505.69 251.46 255 213 0
4499.49 -2299.84 236.22 255 81 0
4218.96 -2123.93 213.36 255 22 0
3806.10 -1859.85 190.50 255 199 0
3473.33 -1650.56 175.26 255 90 0
3178.19 -1462.22 160.02 255 42 0
2837.48 -1243.86 129.54 255 104 0
