ply
format ascii 1.0
element vertex 1885
property float x
property float y
property float z
end_header
4441.26 18183.06 2545.08
5139.94 17862.13 2506.98
5854.50 17530.84 2461.26
6590.23 17194.37 2415.54
7253.24 16887.59 2385.06
7966.41 16557.68 2354.58
8630.57 16246.24 2331.72
9339.95 15920.47 2293.62
9961.88 15631.11 2255.52
10681.73 15299.82 2209.80
11349.00 14999.16 2171.70
12052.62 14673.48 2133.60
12700.44 14378.17 2110.74
13412.93 14052.32 2095.50
14058.67 13757.26 2095.50
14746.77 13441.50 2095.50
15434.40 13126.00 2095.50
16050.57 12846.05 2095.50
16759.95 12525.37 2095.50
17419.74 12225.06 2095.50
18129.00 11904.12 2095.50
18769.46 11609.07 2095.50
19468.14 11298.49 2095.50
20141.16 10988.16 2095.50
20780.80 10698.03 2087.88
21437.14 10402.97 2087.88
22098.42 10097.40 2087.88
22714.60 9817.44 2095.50
23299.71 9552.75 2095.50
23988.37 9238.29 2095.50
24599.37 8962.30 2095.50
25236.26 8667.08 2095.50
25836.90 8397.30 2095.50
26484.14 8102.08 2095.50
27105.50 7817.03 2095.50
27747.56 7521.80 2095.50
28322.32 7262.21 2095.50
28948.85 6977.16 2095.50
29611.63 6676.85 2095.50
30186.38 6412.16 2095.50
30864.69 6106.76 2095.50
31509.75 5811.53 2095.50
32081.51 5551.94 2095.50
32733.93 5251.62 2095.50
33324.22 4981.84 2095.50
33971.00 4688.26 2095.50
34600.87 4398.38 2095.50
35240.06 4106.35 2095.50
35897.66 3808.27 2095.50
36524.19 3520.99 2095.50
32930.69 -16783.42 1181.10
32473.08 -16985.21 1181.10
31941.70 -17190.63 1181.10
31430.35 -17337.21 1181.10
30983.78 -17440.04 1181.10
30471.17 -17521.49 1181.10
29958.55 -17506.22 1181.10
29528.78 -17399.32 1181.10
29067.94 -17246.62 1181.10
28651.52 -17109.45 1181.10
28206.91 -16964.51 1181.10
27778.17 -16804.04 1181.10
27379.93 -16625.63 1181.10
26955.34 -16422.02 1181.10
26587.70 -16238.78 1181.10
26163.11 -16030.09 1181.10
25788.00 -15836.06 1181.10
25375.14 -15608.30 1181.10
25023.96 -15398.91 1181.10
24630.44 -15154.59 1181.10
24247.27 -14905.17 1181.10
23882.51 -14661.02 1181.10
23512.00 -14412.56 1181.10
23130.90 -14158.91 1181.10
22749.81 -13910.45 1181.10
22368.71 -13656.81 1181.10
21977.03 -13403.16 1181.10
21611.81 -13170.23 1181.10
21223.35 -12925.13 1181.10
20833.74 -12678.47 1181.10
20457.01 -12431.39 1181.10
20110.09 -12212.51 1181.10
19685.50 -11942.74 1181.10
19319.93 -11705.31 1181.10
18965.76 -11484.63 1173.48
18510.10 -11194.49 1158.24
18139.59 -10959.92 1135.38
17790.25 -10737.33 1112.52
17350.93 -10457.81 1082.04
16998.14 -10232.46 1059.18
16573.55 -9962.69 1028.70
16211.09 -9733.63 1005.84
15821.25 -9484.65 982.98
15456.03 -9251.71 960.12
15106.69 -9029.13 944.88
14781.98 -8822.51 922.02
14355.08 -8552.90 899.16
13979.39 -8308.41 876.30
13629.94 -8092.21 853.44
13222.38 -7833.39 830.58
12888.92 -7615.98 807.72
12498.50 -7371.83 784.86
12130.87 -7137.68 754.38
11756.21 -6901.64 731.52
11380.41 -6663.53 708.66
10994.02 -6420.24 685.80
10629.26 -6185.83 662.94
10271.98 -5956.78 640.08
9919.54 -5736.96 617.22
9559.61 -5504.02 586.74
9247.32 -5307.32 571.50
8897.98 -5089.91 548.64
8578.79 -4882.77 533.40
8262.82 -4686.15 510.54
7962.62 -4490.83 495.30
7641.58 -4287.23 472.44
7341.26 -4098.89 457.20
7024.26 -3894.17 434.34
6714.73 -3696.78 419.10
6410.27 -3505.94 396.24
6092.69 -3304.06 373.38
5793.05 -3116.50 358.14
5456.49 -2902.72 335.28
5176.99 -2724.31 320.04
4827.65 -2501.72 297.18
4529.63 -2312.27 274.32
4234.49 -2118.84 259.08
3939.35 -1930.51 243.84
3604.97 -1720.09 220.98
3287.39 -1523.39 198.12
2975.10 -1331.86 182.88
2774.31 -1207.72 160.02
2504.02 -1036.81 144.78
-32599.26 -4831.09 3032.76
-31815.90 -4815.56 3017.52
-31101.34 -4800.03 3009.90
-30286.22 -4784.50 2994.66
-29603.42 -4765.70 2971.80
-28831.90 -4724.98 2941.32
-28116.08 -4680.98 2918.46
-27327.42 -4629.21 2887.98
-26595.03 -4592.63 2865.12
-25893.01 -4634.39 2842.26
-25199.63 -4774.15 2819.40
-24516.83 -5022.62 2788.92
-23840.36 -5376.51 2758.44
-23151.69 -5783.72 2735.58
-22574.29 -6140.71 2720.34
-21896.78 -6560.00 2697.48
-21329.05 -6913.72 2689.86
-20679.39 -7315.75 2674.62
-20096.70 -7677.23 2659.38
-19470.17 -8064.08 2651.76
-18890.24 -8425.48 2636.52
-18292.24 -8796.19 2628.90
-17735.55 -9138.09 2613.66
-17150.44 -9499.49 2583.18
-16580.87 -9850.71 2552.70
-16037.42 -10183.46 2522.22
-15462.43 -10537.87 2484.12
-14920.59 -10861.57 2453.64
-14333.64 -11209.76 2423.16
-13734.95 -11560.38 2385.06
-13200.36 -11870.96 2346.96
-12618.13 -12212.60 2316.48
-12088.83 -12518.00 2278.38
-11511.66 -12853.86 2240.28
-10962.79 -13169.45 2202.18
-10400.35 -13496.34 2164.08
-9802.93 -13841.34 2125.98
-9246.48 -14164.09 2087.88
-8731.10 -14457.25 2057.40
-8119.06 -14816.31 2019.30
-7555.70 -15144.41 1988.82
-7028.70 -15453.01 1958.34
-6478.69 -15770.49 1920.24
-5917.17 -16094.88 1889.76
-5382.57 -16400.28 1859.28
-4895.62 -16684.98 1828.80
-4355.73 -16990.39 1798.32
-3805.26 -17306.15 1775.46
-3258.00 -17618.20 1744.98
-2714.89 -17927.31 1714.50
-2201.70 -18218.83 1676.40
-1611.42 -18544.60 1638.30
-1116.40 -18822.83 1600.20
-576.52 -19117.88 1554.48
-26.96 -19415.00 1501.14
516.72 -19700.05 1463.04
1106.66 -20008.22 1424.94
1624.80 -20280.32 1386.84
2246.16 -20606.09 1348.74
2784.55 -20888.20 1310.64
3349.06 -21186.36 1280.16
3901.38 -21478.31 1249.68
4398.92 -21737.12 1219.20
5006.01 -22061.86 1188.72
5552.80 -22342.76 1181.10
6103.27 -22544.64 1181.10
6668.13 -22667.58 1181.10
7305.02 -22687.94 1181.10
7817.63 -22616.68 1181.10
8413.10 -22423.25 1181.10
8899.82 -22153.48 1181.10
9303.70 -21832.80 1181.10
9671.34 -21415.41 1173.48
9988.34 -20965.84 1173.48
10263.58 -20546.56 1181.10
10575.87 -20080.68 1181.10
10872.62 -19633.88 1181.10
11168.69 -19190.35 1181.10
11470.39 -18745.18 1181.10
11768.41 -18300.27 1165.86
12063.55 -17857.43 1143.00
12370.20 -17399.32 1104.90
12656.03 -16974.86 1082.04
12941.85 -16545.22 1059.18
13233.77 -16111.53 1028.70
13549.62 -15638.15 998.22
13792.99 -15195.31 967.74
13948.33 -14757.56 937.26
14037.50 -14231.38 906.78
14085.14 -13739.63 883.92
14132.78 -13227.17 861.06
14170.98 -12762.24 838.20
14217.58 -12278.68 822.96
14259.00 -11830.75 800.10
14312.74 -11322.26 784.86
14352.21 -10889.09 777.24
14402.72 -10406.04 754.38
14445.06 -9991.93 723.90
14466.12 -9509.67 693.42
14403.99 -9107.55 655.32
14202.05 -8679.98 624.84
13973.99 -8428.67 601.98
13614.06 -8149.15 601.98
13291.19 -7926.56 601.98
12923.09 -7672.14 601.98
12555.46 -7419.28 601.98
12208.54 -7183.49 601.98
11861.61 -6949.35 601.98
11496.85 -6715.29 601.98
11152.23 -6496.33 601.98
10829.93 -6296.00 601.98
10448.03 -6053.49 601.98
10111.47 -5844.80 601.98
9769.72 -5631.01 601.98
9443.16 -5431.55 586.74
9109.70 -5224.50 563.88
8776.24 -5017.44 541.02
8442.78 -4805.21 518.16
8128.31 -4607.90 502.92
7833.17 -4419.57 480.06
7516.51 -4215.10 464.82
7225.39 -4023.58 441.96
6939.57 -3842.40 426.72
6643.16 -3656.05 403.86
6316.03 -3457.54 388.62
6046.77 -3284.48 365.76
5685.12 -3055.60 350.52
5420.24 -2882.36 327.66
5081.72 -2672.54 312.42
4804.07 -2495.51 289.56
4488.21 -2286.82 274.32
4172.36 -2088.30 251.46
3938.43 -1942.68 236.22
3561.36 -1711.64 213.36
3266.21 -1518.21 198.12
2965.89 -1324.79 175.26
2665.57 -1136.46 160.02
2339.94 -933.28 144.78
2080.46 -769.97 129.54
2080.46 -769.97 114.30
2080.46 -769.97 114.30
19965.68 -30366.14 1607.82
19849.23 -29682.86 1569.72
19738.08 -29056.52 1531.62
19626.93 -28419.82 1493.52
19505.19 -27746.89 1455.42
19394.03 -27141.26 1417.32
19272.30 -26499.39 1379.22
19145.26 -25836.81 1341.12
19034.11 -25257.06 1303.02
18907.08 -24568.60 1264.92
18785.34 -23926.73 1226.82
18658.31 -23227.92 1196.34
18541.17 -22606.50 1173.48
18451.88 -22104.65 1165.86
18313.34 -21344.15 1150.62
18209.78 -20758.79 1143.00
18107.83 -20173.86 1127.76
18018.20 -19654.24 1120.14
17899.10 -18977.25 1104.90
17795.54 -18417.34 1097.28
17691.98 -17826.89 1082.04
17589.12 -17285.44 1074.42
17477.96 -16664.28 1059.18
17387.98 -16188.05 1043.94
17277.75 -15592.34 1021.08
17176.26 -15033.72 1005.84
17075.81 -14513.24 990.60
16985.71 -14019.15 967.74
16879.85 -13449.75 960.12
16784.58 -12932.11 952.50
16697.82 -12456.84 944.88
16583.90 -11851.12 914.40
16488.17 -11348.14 899.16
16387.14 -10792.37 899.16
16257.69 -10268.09 899.16
16060.93 -9815.08 906.78
15770.97 -9433.32 906.78
15377.44 -9107.55 906.78
14979.66 -8858.31 906.78
14593.27 -8651.25 891.54
14124.38 -8394.94 861.06
13730.85 -8155.70 838.20
13322.95 -7900.68 815.34
12936.55 -7657.39 792.48
12534.75 -7397.28 769.62
12172.29 -7168.22 746.76
11835.72 -6954.44 723.90
11483.62 -6730.47 708.66
11152.23 -6516.69 685.80
10814.06 -6301.18 662.94
10496.47 -6104.48 647.70
10184.19 -5902.60 624.84
9887.78 -5716.25 609.60
9612.54 -5540.25 586.74
9319.24 -5356.15 571.50
9003.38 -5157.63 556.26
8718.02 -4976.03 541.02
8449.34 -4806.42 518.16
8146.38 -4618.86 502.92
7929.36 -4479.10 487.68
7654.12 -4303.10 472.44
7384.18 -4132.28 449.58
7092.72 -3946.19 434.34
6823.47 -3778.22 419.10
6574.35 -3619.82 403.86
6304.41 -3449.00 388.62
6041.60 -3284.48 373.38
5772.34 -3106.32 358.14
5518.62 -2943.44 342.90
5254.55 -2775.47 327.66
5021.54 -2622.76 304.80
4731.57 -2444.61 289.56
4525.95 -2310.20 274.32
4256.01 -2144.55 251.46
3949.01 -1947.85 236.22
3659.74 -1762.54 220.98
3411.20 -1604.74 205.74
3188.55 -1462.22 190.50
2820.91 -1238.26 167.64
2738.06 -1182.27 160.02
2505.06 -1039.74 129.54
26772.50 -24620.36 1905.00
26507.85 -23988.85 1874.52
26256.32 -23405.64 1836.42
26031.48 -22881.10 1813.56
25785.12 -22301.09 1783.08
25549.81 -21752.65 1752.60
25279.87 -21115.96 1714.50
25055.03 -20590.82 1684.02
24806.49 -20015.64 1653.54
24581.19 -19485.40 1630.68
24324.94 -18880.54 1607.82
24099.53 -18336.25 1584.96
23869.28 -17786.17 1546.86
23641.45 -17241.53 1516.38
23432.61 -16741.92 1485.90
23194.42 -16188.05 1455.42
22950.94 -15654.89 1424.94
22699.06 -15113.87 1394.46
22434.99 -14625.22 1386.84
22124.31 -14233.28 1386.84
21741.14 -13866.79 1386.84
21352.45 -13558.46 1379.22
20944.89 -13273.75 1363.98
20590.26 -13035.64 1348.74
20198.57 -12771.65 1318.26
19789.05 -12497.56 1280.16
19431.78 -12258.32 1249.68
19023.52 -11990.01 1211.58
18658.31 -11762.25 1188.72
18277.09 -11520.26 1158.24
17904.28 -11286.11 1143.00
17536.19 -11047.91 1127.76
17189.72 -10828.01 1104.90
16816.91 -10593.86 1082.04
16435.24 -10354.28 1059.18
16076.46 -10125.57 1036.32
15710.10 -9888.41 1013.46
15351.55 -9662.37 990.60
14999.45 -9438.41 967.74
14626.64 -9204.26 944.88
14280.98 -8987.72 922.02
13942.23 -8775.49 899.16
13565.16 -8532.37 876.30
13195.91 -8294.08 853.44
12851.87 -8071.50 830.58
12513.11 -7854.09 807.72
12153.19 -7631.51 784.86
11809.83 -7412.55 762.00
11462.91 -7193.67 739.14
11115.99 -6969.71 716.28
10763.89 -6745.75 701.04
10454.13 -6549.65 678.18
10125.96 -6347.77 655.32
9787.21 -6130.36 640.08
9432.58 -5907.78 617.22
9132.83 -5717.54 594.36
8791.09 -5498.67 571.50
8490.42 -5302.14 556.26
8185.27 -5106.73 533.40
7869.41 -4903.13 518.16
7558.85 -4701.68 495.30
7235.98 -4489.45 480.06
6934.27 -4297.92 457.20
6642.24 -4114.16 441.96
6330.87 -3920.05 419.10
5984.64 -3701.87 396.24
5685.12 -3511.12 381.00
5399.30 -3335.12 365.76
5062.96 -3121.59 342.90
4742.97 -2921.01 320.04
4457.14 -2739.84 297.18
4113.10 -2522.43 274.32
3821.98 -2330.90 259.08
3504.40 -2129.02 243.84
3234.46 -1963.38 228.60
2919.29 -1762.54 205.74
2603.44 -1564.02 190.50
2297.59 -1373.27 167.64
2018.33 -1197.54 152.40
2018.33 -1197.54 152.40
2018.33 -1197.54 152.40
1133.13 -633.05 121.92
817.04 -439.11 114.30
537.43 -260.96 114.30
6952.92 -25222.81 3032.76
6668.13 -24581.45 3017.52
6372.98 -23904.47 3009.90
6083.02 -23242.76 2987.04
5813.77 -22621.77 2948.94
5534.16 -21980.41 2910.84
5223.48 -21267.80 2865.12
4954.69 -20650.09 2827.02
4679.45 -20018.57 2796.54
4400.19 -19384.46 2758.44
4086.63 -18693.42 2720.34
3835.79 -18142.48 2682.24
3519.93 -17460.41 2644.14
3213.28 -16783.34 2606.04
2938.05 -16182.88 2567.94
2650.04 -15531.26 2537.46
2380.78 -14925.54 2522.22
2091.16 -14257.27 2506.98
1826.51 -13651.63 2491.74
1567.85 -13067.65 2476.50
1272.70 -12446.66 2461.26
937.29 -11886.49 2453.64
529.73 -11374.03 2438.40
132.75 -10975.45 2423.16
-338.33 -10602.75 2415.54
-846.46 -10271.46 2400.30
-1352.52 -9967.78 2385.06
-1849.60 -9662.37 2369.82
-2333.80 -9360.42 2354.58
-2791.99 -9066.83 2346.96
-3283.89 -8761.42 2316.48
-3760.26 -8461.11 2263.14
-4207.52 -8169.85 2232.66
-4702.65 -7845.21 2202.18
-5199.73 -7529.62 2171.70
-5665.75 -7234.39 2125.98
-6102.42 -6958.58 2087.88
-6610.55 -6642.82 2049.78
-7092.22 -6337.42 2004.06
-7542.12 -6057.89 1965.96
-8034.38 -5757.66 1927.86
-8542.50 -5441.90 1889.76
-9005.53 -5152.54 1851.66
-9471.54 -4862.41 1813.56
-9950.45 -4561.92 1775.46
-10424.29 -4266.87 1744.98
-10903.19 -3966.64 1706.88
-11377.03 -3676.41 1676.40
-11887.69 -3361.00 1638.30
-12324.59 -3091.05 1600.20
-12795.79 -2795.83 1562.10
-13261.80 -2500.60 1524.00
-13748.53 -2200.29 1485.90
-14219.72 -1910.15 1440.18
-14696.10 -1614.92 1394.46
-15153.48 -1331.86 1348.74
-15628.13 -1039.74 1303.02
-16140.74 -719.07 1249.68
-16653.36 -393.30 1196.34
-17098.67 -103.16 1150.62
-17564.68 278.59 1104.90
-17947.85 792.69 1066.80
-18175.68 1322.06 1051.56
-18271.07 1825.72 1036.32
-18242.99 2492.79 1036.32
-18085.81 3047.35 1028.70
-17874.09 3544.28 1013.46
-17642.35 4040.18 998.22
-17418.89 4512.26 975.36
-17181.51 5017.48 952.50
-16953.68 5495.94 929.64
-16693.75 5961.65 906.78
-16397.34 6323.99 891.54
-16005.66 6681.16 868.68
-15597.06 7002.61 845.82
-15193.18 7292.75 822.96
-14804.14 7555.97 807.72
-14385.42 7837.39 792.48
-14033.32 8071.54 777.24
-13644.97 8275.14 754.38
-13195.07 8368.66 731.52
-12811.32 8326.04 723.90
-12459.22 8193.70 716.28
-12120.58 8032.20 723.90
-11801.62 7867.93 731.52
-11485.42 7711.26 739.14
-11164.73 7552.35 739.14
-10860.85 7390.32 731.52
-10543.38 7206.22 731.52
-10237.88 7022.97 731.52
-9947.92 6839.73 731.52
-9664.62 6660.46 731.52
-9347.27 6463.06 731.52
-9052.13 6274.73 716.28
-8754.23 6080.70 693.42
-8461.84 5892.97 678.18
-8135.63 5694.46 655.32
-7838.53 5500.95 640.08
-7547.42 5319.78 624.84
-7245.72 5128.25 609.60
-6965.42 4946.21 594.36
-6679.36 4760.73 571.50
-6372.37 4564.03 556.26
-6086.55 4382.85 533.40
-5779.55 4191.33 518.16
-5525.95 4035.09 502.92
-5168.67 3816.21 480.06
-4883.88 3632.97 464.82
-4599.21 3451.11 441.96
-4314.31 3276.66 426.72
-4008.81 3083.24 411.48
-3703.31 2884.72 388.62
-3418.52 2701.48 373.38
-3133.73 2518.24 350.52
-2833.41 2334.99 335.28
-2527.91 2151.75 320.04
-2258.66 1978.69 304.80
-1942.11 1779.14 281.94
-1652.84 1596.93 266.70
-1370.47 1411.61 243.84
-1079.35 1220.09 228.60
-788.24 1033.74 205.74
-513.69 858.86 190.50
-203.01 665.44 175.26
95.70 479.87 152.40
360.35 314.22 129.54
609.12 158.93 114.30
20600.84 8565.36 3017.52
20008.02 8327.25 3002.28
19420.50 8089.14 2979.42
18841.49 7857.75 2956.56
18308.16 7638.88 2941.32
17710.86 7395.50 2918.46
17170.97 7167.74 2903.22
16604.62 6934.80 2880.36
16060.93 6702.30 2857.50
15501.71 6468.15 2842.26
14926.73 6225.64 2819.40
14383.27 6025.32 2796.54
13792.99 5882.79 2781.30
13213.06 5831.89 2758.44
12560.64 5887.88 2735.58
12020.86 6034.12 2720.34
11412.17 6308.46 2705.10
10836.38 6631.04 2682.24
10337.68 6934.80 2659.38
9776.62 7276.44 2628.90
9282.99 7582.89 2606.04
8718.60 7929.01 2583.18
8221.51 8234.42 2560.32
7719.25 8539.82 2545.08
7248.06 8829.96 2529.84
6770.19 9119.23 2514.60
6305.67 9400.05 2499.36
5891.55 9647.22 2484.12
5430.60 9924.33 2461.26
4980.12 10189.02 2423.16
4547.12 10434.03 2392.68
4150.15 10656.62 2354.58
3690.81 10911.81 2331.72
3266.21 11148.37 2301.24
2836.44 11390.28 2263.14
2408.75 11634.95 2225.04
1966.55 11884.02 2171.70
1541.96 12133.44 2118.36
1055.23 12408.30 2049.78
640.99 12637.35 1981.20
169.80 12891.86 1905.00
-258.93 13125.75 1836.42
-756.48 13394.92 1760.22
-1243.78 13660.47 1676.40
-1714.97 13920.06 1600.20
-2186.17 14174.57 1524.00
-2693.72 14461.25 1447.80
-3175.39 14730.42 1379.22
-3688.81 15025.47 1310.64
-4202.23 15325.70 1249.68
-4692.30 15620.15 1196.34
-5199.73 15930.65 1158.24
-5700.15 16241.92 1112.52
-6204.26 16551.64 1066.80
-6690.98 16857.05 1021.08
-7198.42 17172.63 990.60
-7674.80 17462.77 975.36
-8208.12 17788.54 967.74
-8653.66 18069.18 967.74
-9172.37 18343.53 960.12
-9657.95 18511.33 960.12
-10160.21 18577.50 960.12
-10638.54 18540.23 960.12
-11092.24 18399.35 960.12
-11480.59 18175.38 967.74
-11803.00 17882.83 967.74
-12091.59 17518.76 967.74
-12342.89 17158.14 967.74
-12596.96 16754.38 967.74
-12842.39 16363.31 960.12
-13065.04 15991.73 960.12
-13295.63 15620.76 952.50
-13541.41 15218.04 944.88
-13800.31 14810.83 937.26
-14022.96 14449.43 929.64
-14269.55 14047.14 914.40
-14488.98 13685.92 906.78
-14730.04 13291.39 899.16
-14975.71 12891.86 883.92
-15201.12 12525.29 876.30
-15441.72 12143.62 868.68
-15695.44 11736.41 861.06
-15897.38 11349.56 853.44
-16052.72 10901.63 838.20
-16148.57 10470.27 822.96
-16213.24 10066.85 815.34
-16218.41 9659.65 807.72
-16106.22 9259.00 807.72
-15889.21 8932.88 807.72
-15576.35 8672.17 807.72
-15234.60 8499.10 807.72
-14888.83 8353.13 815.34
-14534.20 8187.49 815.34
-14190.15 7995.96 815.34
-13893.74 7814.79 815.34
-13581.46 7618.09 815.34
-13258.58 7416.21 815.34
-12983.35 7240.21 815.34
-12650.81 7033.16 807.72
-12348.18 6846.81 800.10
-12025.31 6655.28 784.86
-11723.61 6463.75 762.00
-11408.10 6269.64 739.14
-11136.08 6091.06 723.90
-10813.21 5894.35 708.66
-10496.78 5699.55 693.42
-10191.28 5501.04 678.18
-9885.78 5307.61 655.32
-9601.11 5123.07 640.08
-9279.96 4915.67 624.84
-8976.53 4724.49 609.60
-8669.54 4532.97 586.74
-8353.11 4335.40 556.26
-8032.07 4131.80 533.40
-7726.57 3938.37 518.16
-7420.39 3751.33 502.92
-7108.10 3554.63 487.68
-6795.81 3352.75 480.06
-6504.69 3166.40 457.20
-6173.19 2961.08 434.34
-5885.41 2783.35 411.48
-5557.24 2576.30 381.00
-5261.87 2390.98 358.14
-4982.26 2212.83 342.90
-4656.05 2009.23 335.28
-4334.56 1805.02 312.42
-4054.03 1634.20 289.56
-3755.09 1444.23 274.32
-3408.28 1214.91 259.08
-3085.40 1018.21 236.22
-30085.08 -4768.97 3032.76
-29275.25 -4732.74 3017.52
-28448.73 -4684.25 2987.04
-27630.62 -4628.26 2956.56
-26835.17 -4572.27 2918.46
-26025.34 -4510.16 2880.36
-25279.83 -4455.20 2849.88
-24485.07 -4391.10 2811.78
-23707.00 -4334.16 2773.68
-22918.68 -4282.14 2743.20
-22116.10 -4231.24 2705.10
-21325.14 -4189.22 2667.00
-20531.65 -4149.79 2636.52
-19765.31 -4109.07 2598.42
-19049.14 -4075.34 2567.94
-18218.14 -4033.93 2529.84
-17503.58 -4002.87 2499.36
-16714.92 -3961.46 2468.88
-15942.14 -3925.23 2446.02
-15174.65 -3914.87 2430.78
-14407.17 -3976.99 2423.16
-13712.29 -4103.98 2407.92
-12987.37 -4317.77 2377.44
-12303.88 -4602.81 2354.58
-11633.63 -4970.85 2324.10
-10982.59 -5390.14 2293.62
-10395.06 -5773.19 2263.14
-9771.87 -6175.65 2240.28
-9172.37 -6554.82 2217.42
-8531.92 -6958.58 2194.56
-7928.51 -7336.20 2171.70
-7322.69 -7717.95 2141.22
-6716.41 -8097.38 2118.36
-6121.41 -8471.29 2095.50
-5525.49 -8847.96 2065.02
-4971.90 -9199.17 2034.54
-4308.09 -9624.41 2004.06
-3720.57 -10002.29 1981.20
-3159.51 -10354.28 1958.34
-2579.69 -10710.93 1943.10
-2021.51 -11053.09 1935.48
-1425.01 -11418.46 1920.24
-886.50 -11744.22 1905.00
-301.28 -12114.25 1882.14
212.14 -12440.36 1866.90
785.98 -12797.87 1844.04
1355.44 -13165.05 1821.18
1858.27 -13485.99 1798.32
2401.50 -13836.25 1767.84
2924.47 -14172.20 1714.50
3488.87 -14533.60 1653.54
3996.65 -14852.55 1607.82
4545.17 -15195.31 1562.10
5073.32 -15536.35 1524.00
5637.49 -15898.18 1501.14
6155.51 -16233.69 1493.52
6662.95 -16564.55 1485.90
7149.68 -16880.13 1485.90
7632.95 -17187.09 1485.90
8123.13 -17506.22 1485.90
8573.61 -17796.35 1485.90
8987.96 -18067.08 1485.90
9464.34 -18377.66 1485.90
9914.24 -18677.89 1485.90
10380.72 -18987.44 1485.90
10798.18 -19262.82 1485.90
11224.72 -19542.26 1485.90
11671.52 -19837.40 1493.52
12105.55 -20122.10 1493.52
12534.75 -20397.39 1493.52
13005.36 -20707.03 1493.52
13435.71 -20982.75 1493.52
13857.54 -21260.90 1493.52
14253.83 -21522.30 1493.52
14725.59 -21830.30 1493.52
15159.62 -22115.00 1493.52
15614.82 -22415.23 1493.52
16060.93 -22703.21 1493.52
16477.58 -22979.45 1493.52
16899.76 -23263.12 1493.52
17355.42 -23563.43 1493.52
17795.54 -23838.30 1493.52
18166.05 -24019.90 1493.52
18780.04 -24149.31 1493.52
19302.33 -24108.08 1493.52
19752.81 -23950.28 1493.52
20135.98 -23680.51 1493.52
20462.19 -23324.20 1485.90
20738.46 -22958.75 1493.52
21026.59 -22565.78 1493.52
21332.08 -22138.21 1493.52
21574.76 -21794.06 1493.52
21871.17 -21385.13 1493.52
22183.45 -20950.32 1493.52
22485.16 -20531.03 1493.52
22744.51 -20173.86 1493.52
23051.16 -19745.86 1493.52
23315.24 -19379.37 1493.52
23570.22 -19004.00 1493.52
23792.53 -18507.07 1493.52
23853.75 -18066.13 1493.52
23796.79 -17679.28 1485.90
23639.03 -17218.15 1455.42
23469.66 -16824.75 1424.94
23278.99 -16427.11 1402.08
23125.61 -16100.05 1379.22
22906.18 -15627.97 1356.36
22740.49 -15266.57 1333.50
22532.79 -14821.49 1318.26
22346.96 -14421.62 1295.40
22172.87 -14065.74 1280.16
21913.51 -13724.10 1264.92
21611.69 -13423.96 1249.68
21331.28 -13170.23 1234.44
20997.82 -12895.88 1226.82
20690.82 -12647.41 1219.20
20389.70 -12405.94 1219.20
20076.83 -12171.19 1211.58
19711.62 -11917.55 1211.58
19378.16 -11700.14 1203.96
19034.11 -11482.73 1188.72
18690.06 -11270.50 1173.48
18346.02 -11063.44 1150.62
18038.91 -10873.82 1135.38
17652.63 -10638.98 1112.52
17334.71 -10441.16 1089.66
16948.66 -10198.99 1066.80
16666.75 -10013.59 1051.56
16278.40 -9769.26 1028.70
15964.16 -9567.47 1005.84
15631.16 -9356.97 982.98
15276.07 -9137.83 960.12
14910.85 -8904.90 937.26
14587.98 -8692.67 914.40
14222.76 -8466.20 891.54
13889.30 -8252.67 876.30
13554.80 -8038.63 853.44
13211.79 -7823.03 830.58
12850.60 -7595.79 807.72
12524.39 -7387.10 784.86
12187.82 -7173.31 762.00
11846.19 -6958.58 739.14
11478.44 -6725.38 723.90
11162.59 -6526.87 701.04
10814.06 -6301.18 678.18
10494.63 -6094.21 655.32
10194.77 -5902.60 632.46
9883.64 -5707.36 617.22
9580.78 -5519.55 594.36
9284.37 -5333.20 579.12
9008.56 -5157.63 563.88
8744.49 -4994.75 548.64
8469.25 -4815.56 533.40
8204.60 -4649.92 510.54
7950.53 -4489.45 495.30
7685.88 -4323.81 480.06
7424.11 -4154.88 464.82
7167.17 -3992.52 449.58
6918.40 -3832.05 434.34
6627.28 -3650.88 419.10
6372.98 -3493.17 396.24
6103.27 -3319.59 381.00
5865.55 -3167.40 365.76
5573.97 -2983.13 350.52
5311.50 -2811.10 335.28
5034.08 -2641.49 312.42
4774.72 -2475.84 297.18
4483.03 -2291.91 281.94
4218.96 -2123.85 266.70
3954.88 -1955.96 251.46
3685.63 -1782.90 228.60
3411.20 -1609.83 213.36
3107.42 -1419.86 198.12
2903.76 -1289.16 175.26
2903.76 -1289.16 167.64
2903.76 -1289.16 167.64
15781.32 6849.91 3040.38
15165.14 6625.95 3009.90
14535.05 6406.81 2987.04
13891.37 6178.02 2956.56
13254.48 5959.14 2918.46
12674.55 5760.63 2880.36
12089.44 5562.12 2842.26
11428.05 5356.01 2804.16
10803.47 5242.13 2750.82
10141.84 5273.19 2712.72
9575.49 5444.01 2689.86
9014.43 5770.12 2667.00
8563.26 6213.65 2651.76
8215.18 6712.22 2636.52
7871.14 7302.33 2621.28
7553.56 7822.12 2590.80
7193.63 8322.07 2560.32
6787.22 8794.33 2529.84
6404.05 9171.00 2506.98
5923.31 9569.58 2476.50
5472.02 9893.79 2461.26
4964.58 10194.11 2438.40
4503.74 10428.25 2430.78
3975.48 10677.32 2415.54
3504.40 10899.91 2392.68
3002.14 11140.87 2369.82
2530.49 11376.13 2354.58
2023.51 11634.61 2331.72
1552.31 11873.84 2293.62
1096.65 12113.07 2255.52
609.12 12359.64 2209.80
143.91 12596.63 2164.08
-317.16 12820.34 2103.12
-809.41 13058.45 2049.78
-1290.38 13288.89 1981.20
-1766.75 13517.94 1920.24
-2254.40 13757.26 1851.66
-2736.07 13985.02 1783.08
-3228.32 14228.31 1729.74
-3718.84 14464.70 1684.02
-4205.57 14668.30 1645.92
-4707.83 14775.20 1600.20
-5170.85 14761.48 1562.10
-5594.29 14647.60 1524.00
-6043.74 14418.89 1485.90
-6425.30 14197.25 1424.94
-6774.64 13979.85 1363.98
-7097.51 13731.38 1318.26
-7425.68 13425.98 1280.16
-7695.62 13136.10 1242.06
-7944.05 12800.24 1188.72
-8103.18 12442.46 1143.00
-8177.06 12031.63 1120.14
-8197.77 11629.52 1104.90
-8228.84 11201.95 1089.66
-8259.90 10901.63 1066.80
-8314.90 10434.03 1043.94
-8373.13 10040.63 1013.46
-8431.35 9647.22 982.98
-8498.09 9232.08 952.50
-8558.38 8850.06 922.02
-8616.61 8456.66 899.16
-8617.18 8076.63 868.68
-8513.62 7694.87 838.20
-8293.73 7323.03 807.72
-8083.85 7038.25 769.62
-7817.36 6696.69 739.14
-7552.71 6349.87 701.04
-7307.16 6040.59 662.94
-7065.75 5733.89 624.84
-6815.26 5445.04 594.36
-6546.00 5195.63 571.50
-6224.16 4936.72 548.64
-5938.34 4714.14 525.78
-5655.39 4493.20 502.92
-5370.61 4274.32 487.68
-5096.18 4055.45 480.06
-4842.46 3846.75 464.82
-4599.09 3648.24 457.20
-4323.97 3435.58 441.96
-4069.91 3244.05 419.10
-3806.87 3057.79 411.48
-3540.60 2866.18 388.62
-3242.47 2655.67 373.38
-2968.96 2467.59 358.14
-2672.55 2270.89 335.28
-2393.29 2075.40 312.42
-2092.96 1866.70 297.18
-1839.24 1703.82 281.94
-1549.28 1520.58 259.08
-1238.60 1327.15 243.84
-1005.25 1178.68 220.98
-669.03 960.67 205.74
-444.19 821.51 182.88
-100.14 604.10 167.64
159.44 441.48 144.78
475.30 242.96 121.92
730.86 81.29 114.30
-29033.84 21962.42 1348.74
-28693.02 21480.41 1303.02
-28296.04 20931.72 1257.30
-27941.29 20440.48 1226.82
-27568.48 19936.56 1211.58
-27231.91 19478.45 1196.34
-26877.51 19000.93 1181.10
-26532.89 18536.78 1158.24
-26215.89 18095.06 1143.00
-25893.01 17639.54 1127.76
-25564.84 17189.20 1120.14
-25247.26 16754.38 1120.14
-24927.73 16322.59 1112.52
-24601.52 15884.75 1112.52
-24294.52 15470.64 1120.14
-23976.94 15041.00 1120.14
-23638.19 14580.31 1112.52
-23304.73 14161.02 1120.14
-22918.68 13782.63 1112.52
-22468.43 13436.33 1112.52
-22029.11 13094.69 1112.52
-21584.50 12742.69 1112.52
-21118.71 12385.52 1112.52
-20686.99 12072.35 1112.52
-20213.61 11733.30 1104.90
-19742.53 11427.90 1089.66
-19242.34 11120.51 1059.18
-18802.21 10855.82 1036.32
-18297.53 10553.09 1013.46
-17833.93 10270.46 982.98
-17339.50 9973.33 967.74
-16886.37 9700.37 960.12
-16392.05 9393.58 960.12
-15905.09 9093.35 960.12
-15493.50 8835.05 960.12
-15053.37 8560.19 960.12
-14618.43 8285.32 944.88
-14227.20 8042.55 922.02
-13826.20 7786.49 891.54
-13406.79 7519.73 861.06
-13018.44 7277.48 838.20
-12655.18 7048.68 815.34
-12309.06 6834.64 792.48
-11877.10 6556.93 762.00
-11517.18 6329.17 739.14
-11194.31 6132.47 723.90
-10839.67 5909.88 708.66
-10516.80 5708.00 685.80
-10215.10 5521.65 670.56
-9923.98 5335.30 655.32
-9621.70 5144.73 640.08
-9336.92 4966.57 617.22
-9029.46 4765.90 601.98
-8736.28 4579.73 579.12
-8415.24 4376.12 556.26
-8134.94 4191.33 541.02
-7830.13 3999.46 525.78
-7505.07 3797.92 502.92
-7229.84 3621.93 487.68
-6901.67 3414.87 472.44
-6608.14 3230.85 449.58
-6302.64 3042.52 434.34
-6012.44 2861.00 411.48
-5696.82 2665.85 396.24
-5380.96 2472.43 373.38
-5086.17 2286.42 358.14
-4790.68 2100.85 342.90
-4477.47 1898.19 320.04
-4215.92 1729.27 304.80
-3874.06 1520.32 281.94
-3579.04 1332.24 266.70
-3302.42 1152.80 243.84
5955.07 -22984.63 3002.28
5637.49 -22270.29 2956.56
5356.96 -21633.60 2926.08
5081.72 -20996.90 2887.98
4767.82 -20280.32 2849.88
4478.32 -19619.99 2811.78
4197.79 -18983.29 2773.68
3901.38 -18315.54 2735.58
3610.26 -17658.14 2697.48
3328.35 -17012.48 2659.38
3038.38 -16360.94 2621.28
2742.21 -15706.65 2583.18
2451.09 -15049.25 2560.32
2168.49 -14406.35 2552.70
1911.20 -13817.27 2537.46
1593.62 -13113.29 2522.22
1323.68 -12549.06 2506.98
962.03 -11958.01 2499.36
594.39 -11484.63 2476.50
206.05 -11067.24 2446.02
-280.68 -10649.85 2400.30
-762.23 -10319.00 2362.20
-1232.85 -10033.35 2324.10
-1725.10 -9727.94 2293.62
-2237.95 -9402.78 2255.52
-2735.03 -9082.10 2209.80
-3196.56 -8791.02 2179.32
-3729.20 -8456.02 2141.22
-4228.70 -8149.15 2110.74
-4707.83 -7850.30 2080.26
-5218.49 -7527.98 2049.78
-5705.45 -7222.58 2019.30
-6187.11 -6922.35 1988.82
-6679.36 -6616.94 1958.34
-7134.56 -6332.24 1927.86
-7647.98 -6006.13 1889.76
-8129.65 -5705.90 1859.28
-8637.89 -5386.69 1828.80
-9083.20 -5106.73 1805.94
-9569.93 -4806.42 1775.46
-10061.83 -4501.01 1737.36
-10537.97 -4204.75 1706.88
-11056.69 -3883.81 1676.40
-11564.82 -3568.06 1653.54
-11993.55 -3298.88 1638.30
-12516.18 -2973.98 1623.06
-12982.19 -2683.85 1607.82
-13417.37 -2413.72 1592.58
-13899.04 -2113.50 1577.34
-14359.53 -1823.62 1562.10
-14794.48 -1523.30 1539.24
-15203.54 -1161.91 1516.38
-15581.53 -729.25 1493.52
-15897.38 -250.78 1463.04
-16145.92 227.69 1432.56
-16368.57 818.14 1402.08
-16503.20 1344.32 1371.60
-16582.60 1981.02 1341.12
-16582.60 2550.42 1310.64
-16498.02 3185.04 1280.16
-16347.86 3765.31 1249.68
-16132.69 4305.21 1219.20
-15830.99 4853.90 1188.72
-15467.61 5343.24 1158.24
-15052.91 5785.65 1127.76
-14560.66 6189.41 1097.28
-14073.71 6494.81 1059.18
-13554.99 6743.28 1036.32
-12982.19 6931.35 1005.84
-12407.44 7048.43 975.36
-11850.64 7090.10 952.50
-11305.46 7069.39 929.64
-10797.10 6992.43 899.16
-10358.01 6883.04 876.30
-9828.82 6687.03 845.82
-9362.92 6448.23 815.34
-8984.82 6213.65 792.48
-8570.58 5948.96 769.62
-8187.41 5699.55 739.14
-7801.48 5459.54 723.90
-7446.97 5241.44 701.04
-7081.63 5014.37 678.18
-6785.22 4828.02 655.32
-6409.42 4595.08 632.46
-6074.81 4386.30 609.60
-5758.38 4180.97 594.36
-5435.50 3979.10 571.50
-5128.51 3787.57 556.26
-4847.63 3607.52 533.40
-4535.69 3404.52 510.54
-4231.46 3215.58 495.30
-3941.49 3032.34 472.44
-3661.88 2854.18 457.20
-3377.10 2676.03 441.96
-3101.28 2498.65 426.72
-2810.17 2317.48 411.48
-2558.98 2161.93 396.24
-2270.28 1975.84 381.00
-2000.34 1810.20 365.76
-1730.39 1634.20 350.52
-1439.28 1447.85 327.66
-1153.45 1266.68 312.42
-860.61 1082.83 297.18
-571.22 904.33 274.32
-274.81 717.98 251.46
36416.37 -3857.93 1912.62
35940.00 -4339.34 1897.38
35569.49 -4712.03 1874.52
35146.86 -5137.27 1844.04
34722.61 -5560.96 1813.56
34267.41 -6000.95 1775.46
33878.26 -6389.44 1737.36
33484.04 -6782.58 1691.64
33044.61 -7219.12 1645.92
32610.70 -7626.33 1600.20
32160.79 -7978.33 1554.48
31687.99 -8262.59 1516.38
31208.05 -8516.67 1478.28
30699.92 -8775.49 1440.18
30207.09 -8980.30 1394.46
29735.90 -9112.64 1356.36
29212.92 -9194.08 1318.26
28653.71 -9250.07 1280.16
28135.91 -9295.89 1242.06
27651.14 -9334.54 1219.20
27126.21 -9372.24 1181.10
26587.70 -9407.87 1150.62
26100.29 -9438.06 1127.76
25560.40 -9474.30 1089.66
25105.20 -9505.36 1066.80
24537.24 -9540.21 1043.94
23998.96 -9577.82 1036.32
23506.71 -9608.88 1036.32
23030.45 -9636.92 1036.32
22673.17 -9662.37 1036.32
22077.71 -9698.00 1036.32
21744.13 -9717.59 1036.32
21140.50 -9753.99 1036.32
20674.94 -9779.70 1036.32
20214.45 -9810.76 1043.94
19817.48 -9831.47 1043.94
19378.16 -9862.53 1036.32
18981.29 -9886.34 1036.32
18535.99 -9916.88 1036.32
18139.59 -9945.35 1036.32
17759.30 -9967.78 1036.32
17324.35 -9998.32 1036.32
16925.65 -9998.32 1036.32
16567.56 -9898.76 1036.32
16212.93 -9717.59 1036.32
15843.46 -9514.76 1028.70
15530.13 -9329.36 1013.46
15164.91 -9106.77 998.22
14826.16 -8899.72 975.36
14466.24 -8671.96 952.50
14138.07 -8454.55 922.02
13767.56 -8216.44 899.16
13420.18 -7987.73 868.68
13140.57 -7804.49 845.82
12761.89 -7553.86 815.34
12420.83 -7331.11 784.86
12115.33 -7132.59 777.24
11815.01 -6939.17 762.00
11459.80 -6710.11 739.14
11131.64 -6503.06 708.66
10800.13 -6292.73 693.42
10489.46 -6094.21 670.56
10152.89 -5885.52 647.70
9845.43 -5690.37 624.84
9533.15 -5493.67 609.60
9236.74 -5307.32 594.36
8930.89 -5111.82 586.74
8654.50 -4939.79 563.88
8387.21 -4770.79 533.40
8077.57 -4572.27 510.54
7802.10 -4394.12 495.30
7527.67 -4221.06 480.06
7237.70 -4042.90 464.82
6958.09 -3864.75 449.58
6699.20 -3706.96 434.34
6404.97 -3521.47 411.48
6129.74 -3340.30 396.24
5844.83 -3157.22 381.00
5568.68 -2988.30 365.76
5277.56 -2801.95 342.90
5016.36 -2638.03 327.66
4721.22 -2449.70 304.80
4508.92 -2312.27 289.56
4139.56 -2072.08 266.70
3896.08 -1921.97 251.46
3599.67 -1735.62 228.60
3276.80 -1528.57 213.36
3012.15 -1357.74 198.12
-25040.84 26454.91 1493.52
-24781.48 25911.39 1485.90
-24543.29 25414.45 1470.66
-24273.35 24850.23 1440.18
-24024.58 24337.77 1417.32
-23767.87 23810.12 1386.84
-23477.90 23204.40 1356.36
-23239.71 22715.75 1333.50
-22971.27 22158.52 1303.02
-22717.20 21635.70 1280.16
-22463.02 21107.28 1249.68
-22224.95 20631.49 1219.20
-21986.65 20140.16 1196.34
-21748.46 19646.42 1165.86
-21499.92 19142.50 1143.00
-21282.79 18695.52 1120.14
-21049.90 18214.12 1097.28
-20831.97 17758.00 1074.42
-20605.29 17292.73 1051.56
-20397.02 16862.14 1051.56
-20179.55 16419.30 1043.94
-19938.37 15931.34 1043.94
-19723.89 15487.81 1051.56
-19501.23 15029.70 1043.94
-19271.45 14569.95 1036.32
-19045.57 14098.21 1036.32
-18885.06 13695.15 1036.32
-18758.03 13224.10 1036.32
-18678.63 12747.87 1036.32
-18615.80 12291.23 1051.56
-18496.71 11848.39 1043.94
-18299.95 11461.54 1043.94
-17969.37 11039.67 1043.94
-17672.96 10718.73 1043.94
-17352.38 10387.53 1036.32
-16995.45 10019.92 1036.32
-16689.61 9710.55 1036.32
-16342.68 9405.14 1028.70
-15933.63 9160.82 1005.84
-15508.11 8953.59 998.22
-15084.67 8710.30 975.36
-14708.87 8467.01 944.88
-14338.82 8214.06 922.02
-13946.67 7939.02 883.92
-13603.55 7705.05 845.82
-13235.91 7445.45 815.34
-12898.66 7203.98 784.86
-12554.61 6976.22 762.00
-12236.57 6758.29 746.76
-11887.69 6531.05 739.14
-11570.11 6329.17 716.28
-11273.70 6142.82 701.04
-10952.44 5954.05 670.56
-10652.12 5770.81 647.70
-10367.33 5602.84 624.84
-10072.19 5424.68 609.60
-9782.22 5246.53 594.36
-9489.95 5055.78 579.12
-9198.84 4874.61 563.88
-8891.61 4681.53 541.02
-8612.00 4498.29 518.16
-8314.90 4305.21 502.92
-8039.67 4129.21 487.68
-7731.75 3938.37 472.44
-7436.61 3755.13 449.58
-7131.11 3561.71 426.72
-6832.86 3373.46 411.48
-6525.87 3171.58 396.24
-6261.21 3011.98 381.00
-5981.61 2838.91 350.52
-5652.52 2638.41 327.66
-5375.79 2467.34 312.42
-5101.35 2299.36 289.56
-4785.50 2080.49 266.70
-4485.18 1887.06 259.08
-4267.70 1749.63 243.84
-3920.78 1540.94 228.60
-3635.88 1354.67 205.74
23310.06 9685.10 3032.76
22606.90 9388.40 3009.90
22003.49 9139.94 3009.90
21389.50 8881.12 3009.90
20736.62 8606.00 2987.04
20135.98 8351.49 2941.32
19504.27 8086.81 2895.60
18898.45 7832.30 2857.50
18266.62 7566.32 2819.40
17660.92 7313.11 2788.92
17012.18 7038.33 2743.20
16429.95 6805.39 2712.72
15807.21 6554.69 2667.00
15175.50 6300.18 2636.52
14517.90 6060.95 2598.42
13921.06 5915.06 2560.32
13202.70 5867.52 2514.60
12596.88 5923.51 2476.50
11923.75 6101.67 2438.40
11316.89 6375.76 2415.54
10763.89 6697.21 2392.68
10158.07 7073.88 2362.20
9596.66 7405.85 2339.34
9051.48 7726.79 2324.10
8475.23 8061.36 2308.86
7939.95 8373.84 2293.62
7389.47 8694.77 2286.00
6880.42 8987.75 2270.76
6300.49 9318.61 2255.52
5808.59 9593.48 2240.28
5244.19 9909.06 2209.80
4769.43 10175.21 2179.32
4229.54 10480.62 2148.84
3690.81 10789.65 2118.36
3155.06 11106.96 2087.88
2668.10 11391.66 2057.40
2163.31 11690.60 2026.92
1619.63 12021.45 1996.44
1122.54 12316.68 1965.96
609.93 12622.08 1935.48
95.70 12929.04 1905.00
-415.31 13232.90 1882.14
-904.68 13519.15 1851.66
-1435.36 13838.62 1821.18
-1947.98 14144.02 1798.32
-2460.83 14445.72 1775.46
-2947.79 14735.60 1752.60
-3459.94 15034.79 1737.36
-3972.56 15335.11 1729.74
-4440.42 15610.40 1699.26
-4930.48 15900.11 1661.16
-5414.33 16174.63 1607.82
-5890.70 16448.98 1562.10
-6377.66 16728.50 1516.38
-6898.10 17009.75 1470.66
-7436.26 17194.37 1409.70
-7992.03 17246.14 1356.36
-8498.09 17167.54 1310.64
-8989.99 16963.94 1257.30
-9410.56 16650.86 1203.96
-9733.43 16267.80 1150.62
-10030.76 15808.49 1104.90
-10283.91 15398.17 1059.18
-10569.27 14948.26 1013.46
-10850.26 14513.01 967.74
-11141.38 14047.14 922.02
-11406.03 13638.21 899.16
-11686.56 13182.69 891.54
-11892.98 12742.69 883.92
-12014.72 12194.00 883.92
-11988.26 11707.42 883.92
-11843.05 11212.13 883.92
-11610.04 10769.29 883.92
-11309.72 10326.45 883.92
-11030.11 9914.15 883.92
-10760.28 9476.40 883.92
-10485.04 9000.18 883.92
-10225.68 8534.30 861.06
-9976.91 8073.61 845.82
-9722.85 7618.09 822.96
-9489.95 7188.45 800.10
-9262.35 6789.87 769.62
-8997.70 6401.64 754.38
-8679.32 6055.86 731.52
-8363.46 5786.08 708.66
-7949.69 5511.30 670.56
-7563.30 5278.36 640.08
-7203.60 5068.38 617.22
-6832.86 4848.73 586.74
-6472.94 4626.14 563.88
-6150.06 4429.44 541.02
-5827.19 4222.38 518.16
-5479.34 4009.64 495.30
-5147.96 3800.94 480.06
-4842.69 3611.57 457.20
-4556.86 3435.58 441.96
-4246.99 3241.03 426.72
-3988.09 3078.15 411.48
-3694.10 2881.70 388.62
-3434.74 2716.06 373.38
-3148.92 2534.89 358.14
-2889.56 2374.42 342.90
-2603.74 2193.25 327.66
-2328.50 2017.25 304.80
-2061.90 1841.25 289.56
-1818.53 1683.46 274.32
-1518.21 1490.04 259.08
-1254.02 1323.62 236.22
-941.73 1126.91 220.98
-661.20 950.92 198.12
-373.88 777.42 175.26
-63.09 578.22 160.02
180.16 431.30 144.78
5047.43 -20875.86 3009.90
4736.75 -20193.79 2971.80
4451.85 -19563.05 2933.70
4110.22 -18809.28 2903.22
3821.98 -18175.78 2865.12
3514.99 -17492.50 2834.64
3178.19 -16737.61 2796.54
2877.87 -16065.72 2758.44
2587.90 -15404.00 2727.96
2276.42 -14697.26 2689.86
1969.43 -13993.27 2651.76
1655.87 -13286.52 2613.66
1381.90 -12683.65 2583.18
990.22 -11995.19 2567.94
599.57 -11479.54 2552.70
106.28 -10970.27 2545.08
-399.77 -10558.23 2522.22
-931.15 -10198.99 2491.74
-1444.57 -9888.41 2468.88
-2010.12 -9545.30 2453.64
-2466.12 -9256.89 2430.78
-2988.75 -8924.31 2400.30
-3465.12 -8618.90 2362.20
-3990.51 -8288.91 2331.72
-4498.64 -7967.97 2293.62
-4937.96 -7698.80 2255.52
-5432.74 -7392.19 2225.04
-5903.94 -7096.96 2202.18
-6388.25 -6792.94 2179.32
-6880.50 -6482.35 2148.84
-7333.05 -6201.10 2118.36
-7801.48 -5907.78 2087.88
-8219.63 -5648.96 2057.40
-8696.00 -5353.90 2026.92
-9135.32 -5074.38 2004.06
-9580.28 -4796.24 1981.20
-9987.50 -4541.21 1958.34
-10419.11 -4271.96 1935.48
-10848.88 -4007.27 1897.38
-11252.76 -3762.95 1859.28
-11667.00 -3513.53 1813.56
-12088.83 -3257.47 1767.84
-12552.42 -2979.07 1706.88
-12987.37 -2709.30 1653.54
-13470.30 -2413.72 1584.96
-13909.62 -2144.55 1524.00
-14390.60 -1838.89 1463.04
-14866.97 -1543.66 1409.70
-15349.32 -1243.86 1348.74
-15862.75 -928.11 1295.40
-16394.46 -591.81 1249.68
-16860.48 -301.68 1203.96
-17371.26 24.35 1150.62
-17890.89 354.94 1120.14
-18403.51 685.80 1082.04
-18922.11 1007.86 1051.56
-19413.21 1316.97 1028.70
-19920.65 1637.65 990.60
-20404.15 1924.08 967.74
-20906.99 2224.30 960.12
-21399.24 2514.18 960.12
-21923.25 2824.76 960.12
-22437.13 3123.96 960.12
-22913.04 3409.69 960.12
-23415.88 3761.69 960.12
-23814.47 4172.52 967.74
-24156.21 4717.16 960.12
-24363.33 5297.43 960.12
-24441.00 5933.69 960.12
-24384.50 6541.40 952.50
-24204.54 7090.10 960.12
-23913.42 7607.73 960.12
-23489.98 8073.61 960.12
-23045.37 8363.48 960.12
-22510.77 8565.36 960.12
-22055.57 8632.65 960.12
-21489.57 8646.72 960.12
-20991.68 8637.83 952.50
-20490.22 8636.54 960.12
-19954.25 8637.83 960.12
-19439.10 8636.54 960.12
-18952.37 8631.45 967.74
-18455.29 8626.36 960.12
-17973.74 8611.09 960.12
-17461.12 8595.82 960.12
-17000.74 8580.89 960.12
-16518.73 8575.46 952.50
-16016.47 8570.37 952.50
-15565.99 8555.09 952.50
-15115.51 8473.65 944.88
-14634.77 8301.37 929.64
-14266.33 8112.26 906.78
-13877.98 7873.02 883.92
-13507.35 7618.09 845.82
-13173.89 7400.68 830.58
-12790.61 7145.14 807.72
-12433.33 6916.08 784.86
-12062.36 6670.81 769.62
-11675.97 6432.70 739.14
-11314.89 6203.47 723.90
-10957.62 5984.59 701.04
-10617.37 5775.30 678.18
-10294.84 5572.30 662.94
-9918.69 5335.30 647.70
-9558.76 5102.37 624.84
-9241.18 4900.49 601.98
-8870.90 4666.26 571.50
-8542.50 4460.50 548.64
-8218.48 4264.14 533.40
-7886.17 4051.56 518.16
-7571.24 3851.84 502.92
-7235.13 3652.98 480.06
-6903.28 3434.45 457.20
-6571.89 3210.49 441.96
-6266.39 3017.07 419.10
-5914.29 2803.28 396.24
-5583.71 2597.00 381.00
-5292.59 2400.30 365.76
-4930.48 2172.11 342.90
-4593.91 1968.51 320.04
-4276.33 1768.78 297.18
-3957.03 1566.39 274.32
-3661.88 1378.05 259.08
-3263.18 1133.73 228.60
5078.50 -20987.84 3009.90
4774.72 -20329.15 2971.80
4483.61 -19692.46 2941.32
4181.91 -19035.06 2903.22
3887.57 -18391.89 2865.12
3592.43 -17750.54 2834.64
3319.14 -17130.15 2796.54
3022.85 -16452.57 2773.68
2748.42 -15816.30 2743.20
2468.81 -15159.68 2735.58
2202.32 -14531.61 2727.96
1948.25 -13920.80 2720.34
1681.76 -13276.34 2697.48
1422.86 -12680.80 2674.62
1117.36 -12115.80 2651.76
734.20 -11576.25 2628.90
340.67 -11133.41 2598.42
-78.97 -10752.86 2567.94
-523.59 -10421.57 2545.08
-1015.95 -10110.30 2522.22
-1523.39 -9809.99 2499.36
-1957.99 -9546.77 2484.12
-2434.71 -9244.98 2468.88
-2911.08 -8944.67 2446.02
-3356.38 -8659.62 2423.16
-3815.84 -8371.73 2392.68
-4293.59 -8069.17 2369.82
-4779.17 -7766.09 2339.34
-5230.80 -7488.90 2316.48
-5727.89 -7178.40 2286.00
-6192.41 -6891.29 2255.52
-6637.02 -6616.94 2225.04
-7134.56 -6306.36 2194.56
-7586.77 -6028.04 2171.70
-8039.67 -5747.31 2141.22
-8523.98 -5447.77 2110.74
-9010.71 -5142.36 2080.26
-9442.32 -4872.50 2057.40
-9939.86 -4567.10 2026.92
-10388.04 -4282.14 2011.68
-10869.59 -3981.82 1988.82
-11305.46 -3712.99 1965.96
-11744.66 -3442.27 1943.10
-12184.10 -3169.48 1920.24
-12604.20 -2912.90 1889.76
-13068.03 -2631.13 1851.66
-13499.99 -2363.17 1821.18
-13940.12 -2093.39 1783.08
-14349.17 -1838.89 1744.98
-14773.77 -1579.29 1706.88
-15201.12 -1311.16 1668.78
-15645.73 -1036.81 1630.68
-16079.76 -757.29 1577.34
-16534.96 -477.76 1508.76
-16953.11 -224.12 1447.80
-17445.59 69.90 1371.60
-17932.32 360.81 1295.40
-18456.32 666.22 1226.82
-18947.19 955.58 1181.10
-19454.63 1271.16 1135.38
-19931.00 1668.19 1112.52
-20345.24 2182.29 1089.66
-20594.70 2700.53 1089.66
-20753.49 3347.58 1082.04
-20764.08 3916.98 1089.66
-20676.63 4437.20 1082.04
-20441.21 5040.25 1082.04
-20164.01 5582.48 1082.04
-19927.78 6049.64 1089.66
-19647.25 6587.99 1089.66
-19377.31 7059.04 1089.66
-19050.75 7475.99 1089.66
-18636.29 7814.79 1089.66
-18113.54 8076.63 1082.04
-17668.24 8234.42 1066.80
-17133.07 8384.19 1051.56
-16619.65 8487.72 1036.32
-16137.98 8560.19 1013.46
-15638.48 8570.37 982.98
-15120.69 8468.56 952.50
-14730.04 8327.25 929.64
-14285.43 8099.49 906.78
-13888.45 7856.20 876.30
-13499.99 7598.16 845.82
-13116.82 7338.56 822.96
-12745.16 7100.45 807.72
-12314.24 6829.55 777.24
-11920.71 6585.23 754.38
-11558.26 6361.26 731.52
-11175.09 6116.94 701.04
-10807.92 5878.82 685.80
-10465.71 5663.92 662.94
-10119.82 5454.36 647.70
-9766.69 5236.35 624.84
-9430.12 5027.66 609.60
-9087.69 4807.31 586.74
-8767.34 4595.00 563.88
-8452.52 4398.38 541.02
-8140.81 4208.15 518.16
-7812.07 3999.80 502.92
-7493.57 3795.85 487.68
-7161.03 3585.69 464.82
-6827.57 3378.64 441.96
-6530.47 3190.13 426.72
-6188.72 2981.44 411.48
-5857.33 2772.74 388.62
-5551.95 2576.30 365.76
-5225.62 2370.62 350.52
-4879.74 2151.84 327.66
-4567.45 1949.96 304.80
-4267.70 1759.81 289.56
-3905.25 1530.76 266.70
-3589.39 1322.06 251.46
-3283.89 1133.73 228.60
18134.30 -31484.23 2011.68
17933.16 -30857.89 1973.58
17710.86 -30179.79 1935.48
17530.89 -29610.39 1897.38
17308.59 -28937.46 1859.28
17112.74 -28337.00 1821.18
16899.76 -27691.51 1783.08
16689.30 -27042.91 1737.36
16493.46 -26447.62 1706.88
16283.58 -25782.72 1668.78
16085.90 -25174.24 1630.68
15890.06 -24547.89 1600.20
15694.22 -23937.08 1562.10
15487.79 -23295.21 1531.62
15279.06 -22672.67 1493.52
15082.30 -22072.04 1447.80
14875.18 -21445.95 1409.70
14668.06 -20824.96 1371.60
14507.55 -20341.40 1348.74
14259.00 -19582.98 1333.50
14079.85 -19040.23 1325.88
13862.83 -18377.66 1310.64
13693.46 -17865.20 1287.78
13481.74 -17233.68 1257.30
13312.36 -16716.04 1234.44
13130.21 -16167.52 1196.34
12952.43 -15639.36 1165.86
12756.59 -15044.07 1127.76
12586.53 -14523.42 1097.28
12415.65 -14004.23 1066.80
12253.76 -13491.16 1036.32
12084.26 -12955.67 1005.84
11925.59 -12455.89 975.36
11768.41 -11958.01 952.50
11602.71 -11436.14 922.02
11437.02 -10924.72 891.54
11286.86 -10456.43 868.68
11126.34 -9957.60 838.20
10971.00 -9479.13 807.72
10829.93 -9044.66 784.86
10660.33 -8527.28 762.00
10512.35 -8092.21 739.14
10369.44 -7667.74 708.66
10231.82 -7263.99 685.80
10080.40 -6801.74 662.94
9956.59 -6415.06 647.70
9818.97 -5995.77 624.84
9660.98 -5656.46 609.60
9386.55 -5361.24 594.36
9093.83 -5167.56 571.50
8780.73 -4984.57 548.64
8464.88 -4791.15 518.16
8178.13 -4624.04 502.92
7916.01 -4475.56 480.06
7610.51 -4292.32 464.82
7363.01 -4127.10 449.58
7093.07 -3951.11 434.34
6833.82 -3783.31 419.10
6595.64 -3625.51 403.86
6288.53 -3428.29 388.62
6050.34 -3278.18 373.38
5780.40 -3112.54 358.14
5489.28 -2921.01 342.90
5213.12 -2744.93 320.04
4933.51 -2571.86 304.80
4637.11 -2387.84 289.56
4389.83 -2230.83 274.32
4097.22 -2041.03 251.46
3799.54 -1854.16 236.22
3536.16 -1683.86 213.36
3271.39 -1518.21 198.12
2945.18 -1309.52 175.26
2738.06 -1182.27 167.64
2738.06 -1182.27 167.64
6269.43 -23726.32 2987.04
5963.93 -23034.06 2941.32
5658.43 -22316.36 2903.22
5341.08 -21571.48 2865.12
5052.61 -20901.31 2827.02
4737.67 -20179.04 2788.92
4451.97 -19526.99 2750.82
4146.47 -18824.55 2712.72
3840.97 -18137.39 2674.62
3546.74 -17466.62 2636.52
3229.16 -16762.63 2598.42
2922.17 -16069.00 2560.32
2615.17 -15370.19 2514.60
2329.35 -14717.96 2484.12
2028.68 -14050.04 2461.26
1710.07 -13335.87 2446.02
1408.37 -12683.65 2430.78
1059.03 -12062.48 2415.54
682.42 -11540.62 2400.30
195.69 -11021.43 2362.20
-291.04 -10619.31 2316.48
-846.46 -10255.93 2270.76
-1445.72 -9901.61 2232.66
-2010.92 -9562.30 2186.94
-2600.40 -9188.99 2141.22
-3169.98 -8832.69 2103.12
-3698.13 -8501.83 2065.02
-4272.88 -8140.43 2026.92
-4837.28 -7784.13 1988.82
-5393.16 -7439.98 1950.72
-5985.98 -7062.11 1912.62
-6557.62 -6699.76 1874.52
-7123.98 -6342.59 1836.42
-7679.97 -5992.41 1798.32
-8254.73 -5631.01 1767.84
-8788.05 -5295.07 1729.74
-9357.63 -4939.79 1691.64
-9937.56 -4577.36 1653.54
-10501.96 -4231.24 1623.06
-10983.51 -3930.92 1584.96
-11604.86 -3544.07 1569.72
-12195.15 -3167.40 1546.86
-12744.01 -2821.28 1531.62
-13261.80 -2495.51 1508.76
-13784.78 -2164.66 1463.04
-14338.36 -1802.91 1417.32
-14857.07 -1471.63 1363.98
-15434.01 -1109.28 1318.26
-15973.90 -767.64 1264.92
-16561.42 -400.12 1211.58
-17114.20 -62.44 1165.86
-17688.95 288.77 1120.14
-18258.53 629.81 1082.04
-18859.17 991.21 1059.18
-19392.50 1306.79 1059.18
-19975.42 1660.08 1082.04
-20495.40 1978.69 1104.90
-20997.66 2289.18 1120.14
-21442.97 2574.23 1120.14
-21833.27 2902.41 1120.14
-22167.88 3342.83 1104.90
-22369.82 3836.57 1089.66
-22442.31 4350.67 1074.42
-22406.06 4859.68 1059.18
-22293.76 5309.42 1043.94
-22074.68 5786.08 1005.84
-21795.07 6183.11 967.74
-21474.03 6519.06 937.26
-21116.75 6793.92 906.78
-20666.27 7063.70 876.30
-20266.54 7250.56 861.06
-19790.16 7421.38 845.82
-19393.19 7530.09 830.58
-18900.94 7612.91 807.72
-18439.75 7649.06 792.48
-17968.56 7643.97 777.24
-17554.32 7598.16 769.62
-17088.31 7511.62 754.38
-16630.23 7405.85 746.76
-16208.06 7308.02 746.76
-15762.75 7201.13 754.38
-15322.63 7099.33 746.76
-14867.66 6996.92 731.52
-14486.56 6908.92 708.66
-13983.73 6789.87 685.80
-13507.35 6675.99 685.80
-13075.40 6580.14 701.04
-12614.56 6478.33 708.66
-12153.72 6376.53 723.90
-11723.61 6272.23 723.90
-11353.10 6137.64 723.90
-10978.33 5928.60 731.52
-10617.37 5692.47 731.52
-10262.73 5480.24 708.66
-9939.86 5304.25 662.94
-9564.75 5109.10 617.22
-9193.55 4926.37 571.50
-8860.09 4750.37 541.02
-8513.62 4544.10 510.54
-8219.63 4351.79 487.68
-7902.63 4147.07 464.82
-7597.13 3943.46 426.72
-7293.35 3740.98 411.48
-6991.65 3544.28 388.62
-6711.12 3352.75 373.38
-6411.38 3154.50 350.52
-6102.42 2943.82 335.28
-5831.44 2762.56 312.42
-5536.07 2565.95 297.18
-5230.80 2375.71 281.94
-4948.55 2203.60 259.08
-4630.16 1999.05 243.84
-4340.20 1815.80 228.60
-4076.12 1642.74 213.36
-3806.87 1474.77 190.50
-3506.54 1281.34 167.64
-3268.36 1133.73 152.40
24417.11 10159.68 3032.76
23770.90 9893.79 3017.52
23113.30 9618.93 2987.04
22416.35 9326.29 2948.94
21772.21 9048.83 2910.84
21124.97 8773.97 2872.74
20500.28 8503.24 2834.64
19849.23 8228.90 2796.54
19214.07 7954.55 2766.06
18584.20 7685.38 2727.96
17959.63 7426.56 2689.86
17308.82 7160.41 2651.76
16697.82 6916.08 2621.28
16070.02 6665.63 2583.18
15429.57 6406.81 2545.08
14797.51 6157.66 2506.98
14196.29 5972.00 2476.50
13529.37 5873.65 2438.40
12845.42 5898.06 2415.54
12190.24 6023.76 2392.68
11576.83 6244.19 2385.06
10999.31 6551.75 2377.44
10458.39 6885.54 2369.82
9878.46 7241.85 2354.58
9391.73 7537.08 2346.96
8858.40 7852.66 2331.72
8310.46 8177.13 2324.10
7802.33 8472.19 2316.48
7288.91 8767.24 2301.24
6782.04 9053.92 2293.62
