ply
format ascii 1.0
element vertex 1903
property float x
property float y
property float z
end_header
-3630.82 1357.69 160.02
-3318.30 1157.97 144.78
-31927.05 5511.30 2956.56
-31161.98 5663.92 2880.36
-30455.59 5806.35 2811.78
-29722.51 5954.05 2712.72
-29010.60 6096.23 2621.28
-28311.92 6235.99 2529.84
-27549.73 6386.11 2438.40
-26845.75 6525.87 2346.96
-26057.10 6686.34 2247.90
-25353.12 6826.10 2186.94
-24596.22 6976.22 2118.36
-23881.67 7115.98 2057.40
-23204.16 7255.74 1996.44
-22483.73 7399.64 1927.86
-21801.51 7535.26 1866.90
-21139.88 7669.85 1798.32
-20451.79 7804.43 1729.74
-19729.06 7949.37 1661.16
-19050.75 8086.81 1592.58
-18387.51 8218.54 1531.62
-17730.38 8351.49 1463.04
-17048.38 8482.54 1402.08
-16394.46 8616.18 1333.50
-15700.62 8748.52 1264.92
-15063.73 8855.41 1196.34
-14369.89 8891.04 1135.38
-13777.30 8829.36 1082.04
-13142.14 8648.18 1028.70
-12623.42 8394.54 1005.84
-12200.32 8142.80 1005.84
-11739.49 7866.55 998.22
-11284.29 7597.38 975.36
-10833.35 7353.83 929.64
-10382.86 7124.78 876.30
-9963.45 6910.99 845.82
-9553.47 6686.34 807.72
-9130.03 6437.87 769.62
-8722.47 6194.58 731.52
-8368.64 5969.32 701.04
-8007.91 5728.71 662.94
-7642.69 5490.60 632.46
-7276.09 5251.62 601.98
-6917.55 5019.55 571.50
-6602.96 4813.87 548.64
-6245.34 4569.20 518.16
-5896.00 4331.09 495.30
-5567.83 4103.33 472.44
-5239.66 3885.92 449.58
-4911.50 3678.87 426.72
-4588.74 3490.45 403.86
-4272.88 3297.02 381.00
-3964.05 3104.29 365.76
-3657.05 2902.41 350.52
-3334.18 2685.00 335.28
-3066.42 2513.15 312.42
-2766.10 2314.63 297.18
-2476.71 2125.95 274.32
-2191.35 1937.97 259.08
-1910.36 1758.43 243.84
-1651.00 1592.79 228.60
-1391.64 1427.14 213.36
-1109.15 1250.80 198.12
-841.17 1085.50 182.88
-571.22 914.68 167.64
-295.99 738.69 152.40
-89.56 604.10 137.16
190.51 426.21 129.54
455.62 257.28 114.30
713.48 95.35 99.06
11036.36 -34481.35 2971.80
10750.54 -33839.48 2971.80
10406.49 -33057.85 2971.80
10075.22 -32308.23 2971.80
9785.25 -31646.51 2956.56
9480.22 -30966.60 2933.70
9158.72 -30231.47 2903.22
8855.64 -29543.09 2872.74
8548.64 -28844.28 2842.26
8236.36 -28129.94 2811.78
7936.73 -27431.91 2788.92
7646.76 -26775.29 2773.68
7356.80 -26103.39 2758.44
7077.19 -25469.29 2743.20
6780.78 -24796.36 2727.96
6510.83 -24180.37 2712.72
6214.42 -23507.44 2697.48
5939.19 -22886.28 2682.24
5673.96 -22280.73 2667.00
5378.13 -21612.89 2644.14
5135.45 -21059.11 2636.52
4855.85 -20427.93 2621.28
4573.59 -19790.81 2606.04
4308.94 -19190.35 2590.80
4053.26 -18605.68 2567.94
3816.69 -18072.25 2545.08
3552.04 -17476.97 2522.22
3287.39 -16876.51 2491.74
3017.44 -16270.87 2461.26
2763.38 -15696.30 2430.78
2510.23 -15124.05 2400.30
2240.98 -14528.51 2377.44
2002.79 -13983.87 2362.20
1749.07 -13408.69 2362.20
1485.00 -12813.14 2362.20
1241.64 -12268.50 2362.20
920.60 -11662.78 2354.58
572.07 -11198.03 2354.58
85.11 -10758.04 2346.96
-441.20 -10385.17 2339.34
-979.71 -10044.13 2316.48
-1523.39 -9713.27 2308.86
-2092.96 -9367.15 2293.62
-2584.87 -9077.01 2270.76
-3143.63 -8739.25 2247.90
-3687.77 -8415.30 2217.42
-4200.39 -8104.80 2194.56
-4702.65 -7804.49 2164.08
-5235.98 -7478.72 2133.60
-5764.13 -7158.04 2110.74
-6324.73 -6823.99 2080.26
-6846.32 -6501.42 2042.16
-7362.16 -6187.30 2011.68
-7887.09 -5860.07 1973.58
-8441.13 -5519.03 1935.48
-8943.39 -5208.53 1897.38
-9521.71 -4846.62 1874.52
-10040.43 -4520.51 1851.66
-10533.02 -4215.97 1828.80
-11024.93 -3909.70 1805.94
-11570.11 -3562.88 1775.46
-12104.70 -3231.59 1737.36
-12583.49 -2933.26 1699.26
-13110.38 -2600.07 1661.16
-13618.51 -2284.32 1623.06
-14095.45 -1986.50 1584.96
-14587.13 -1678.68 1546.86
-15142.90 -1331.86 1501.14
-15629.85 -1026.46 1463.04
-16109.68 -724.16 1424.94
-16637.83 -393.30 1379.22
-17129.73 -82.80 1341.12
-17625.32 226.23 1295.40
-18112.28 531.63 1264.92
-18620.41 873.27 1234.44
-19054.43 1261.50 1203.96
-19419.65 1722.20 1165.86
-19694.89 2234.66 1135.38
-19884.40 2808.37 1104.90
-19956.89 3312.29 1074.42
-19933.08 3963.57 1043.94
-19791.20 4564.46 1013.46
-19567.86 5112.72 1005.84
-19335.54 5602.84 990.60
-19070.31 6101.41 990.60
-18747.44 6629.40 982.98
-18393.15 7134.96 982.98
-18056.59 7572.71 982.98
-17683.77 7995.18 982.98
-17307.74 8353.13 975.36
-16896.73 8697.62 967.74
-16460.86 8995.00 967.74
-16000.94 9186.27 960.12
-15492.23 9274.52 952.50
-14996.42 9272.80 952.50
-14468.27 9201.54 937.26
-14012.61 9084.47 929.64
-13533.82 8912.18 914.40
-13099.79 8715.48 891.54
-12676.35 8482.54 868.68
-12236.57 8224.24 845.82
-11822.33 7969.73 822.96
-11416.61 7716.44 800.10
-11014.57 7475.99 777.24
-10564.44 7198.80 746.76
-10149.86 6946.62 723.90
-9775.78 6712.22 701.04
-9362.92 6453.40 678.18
-8971.24 6210.11 647.70
-8570.58 5954.05 617.22
-8161.41 5697.65 594.36
-7788.71 5460.31 579.12
-7384.83 5205.81 556.26
-7002.24 4967.78 541.02
-6668.78 4755.55 525.78
-6330.02 4538.14 495.30
-5991.27 4325.91 472.44
-5670.93 4121.62 449.58
-5345.52 3916.98 426.72
-5049.57 3724.59 411.48
-4738.90 3531.17 388.62
-4461.59 3357.93 373.38
-4148.61 3164.68 358.14
-3863.48 2985.23 342.90
-3563.50 2793.10 327.66
-3260.07 2602.18 304.80
-2978.39 2421.52 289.56
-2672.55 2229.48 274.32
-2388.11 2055.04 259.08
-2100.90 1867.14 243.84
-1825.67 1696.31 220.98
-1539.84 1515.14 205.74
-1238.14 1323.62 190.50
-953.82 1143.91 167.64
-671.79 966.45 152.40
-391.26 790.45 137.16
-153.07 640.33 121.92
169.80 438.46 99.06
454.59 258.23 83.82
741.45 76.11 76.20
31282.15 12954.93 3025.14
30522.95 12642.45 3017.52
29773.64 12333.76 3002.28
29073.12 12041.81 2987.04
28363.74 11746.59 2971.80
27677.61 11469.31 2964.18
26984.22 11184.61 2941.32
26248.49 10879.20 2910.84
25614.25 10621.68 2887.98
24930.53 10340.86 2865.12
24290.07 10076.86 2842.26
23596.69 9792.16 2811.78
23035.63 9559.22 2796.54
22326.25 9272.80 2766.06
21590.64 8969.12 2743.20
20997.82 8731.01 2712.72
20277.97 8430.78 2689.86
19592.29 8147.89 2659.38
18898.45 7857.75 2636.52
18271.92 7597.38 2613.66
17593.60 7318.20 2590.80
16916.90 7038.33 2567.94
16242.16 6758.29 2545.08
15657.05 6529.24 2522.22
14963.78 6318.82 2499.36
14217.46 6184.23 2476.50
13513.38 6152.57 2446.02
12876.49 6188.20 2430.78
12177.47 6305.27 2400.30
11571.65 6473.24 2385.06
11158.10 6624.22 2369.82
10300.63 7033.16 2339.34
9707.82 7359.27 2316.48
9162.63 7669.85 2293.62
8609.86 7979.91 2263.14
8014.40 8326.04 2240.28
7470.71 8641.63 2225.04
6932.20 8957.21 2209.80
6404.05 9262.62 2186.94
5907.43 9554.05 2171.70
5378.82 9863.25 2148.84
4881.74 10158.48 2125.98
4340.70 10475.44 2103.12
3856.50 10759.11 2072.64
3323.17 11069.60 2034.54
2816.31 11365.78 2004.06
2302.89 11666.01 1965.96
1763.00 11981.77 1927.86
1265.45 12271.64 1897.38
746.74 12571.87 1859.28
216.40 12886.77 1821.18
-301.39 13187.09 1783.08
-835.87 13493.27 1744.98
-1306.95 13772.79 1722.12
-1844.42 14088.03 1684.02
-2325.97 14378.17 1645.92
-2848.95 14683.58 1600.20
-3371.92 14988.98 1562.10
-3863.48 15279.12 1524.00
-4350.55 15564.16 1478.28
-4852.81 15859.39 1447.80
-5339.54 16139.34 1409.70
-5843.07 16433.45 1371.60
-6406.20 16760.34 1333.50
-6877.39 17035.20 1303.02
-7379.65 17299.89 1264.92
-7997.32 17525.66 1219.20
-8563.68 17608.48 1181.10
-9124.74 17577.43 1135.38
-9699.37 17427.14 1097.28
-10215.10 17158.14 1066.80
-10678.01 16775.61 1036.32
-10978.33 16414.21 1013.46
-11326.63 15895.11 998.22
-11599.68 15462.36 998.22
-11866.52 15035.83 990.60
-12168.22 14533.72 990.60
-12433.33 14098.21 990.60
-12687.05 13680.83 982.98
-12914.54 13255.16 982.98
-13062.74 12835.87 967.74
-13126.26 12421.76 952.50
-13158.24 11934.92 937.26
-13178.96 11497.17 914.40
-13195.07 11075.90 906.78
-13215.20 10636.95 883.92
-13204.85 10224.65 868.68
-13147.89 9791.99 838.20
-13049.51 9410.23 815.34
-12883.81 9033.56 784.86
-12655.98 8712.89 762.00
-12345.31 8412.57 739.14
-12020.02 8171.96 716.28
-11675.97 7939.02 693.42
-11331.92 7711.26 685.80
-10967.97 7475.99 678.18
-10659.71 7276.44 678.18
-10320.96 7043.51 678.18
-9978.98 6819.37 685.80
-9642.42 6615.77 678.18
-9341.75 6437.87 678.18
-9000.35 6223.83 655.32
-8694.85 6035.50 647.70
-8431.35 5863.29 640.08
-8130.45 5674.10 617.22
-7840.49 5485.76 601.98
-7531.54 5288.72 586.74
-7266.89 5123.07 571.50
-6975.77 4941.90 556.26
-6675.45 4752.79 541.02
-6375.13 4559.37 518.16
-6074.81 4371.03 502.92
-5758.95 4172.52 480.06
-5440.80 3968.74 464.82
-5160.27 3792.75 441.96
-4847.63 3602.43 419.10
-4567.45 3425.22 411.48
-4255.16 3228.52 388.62
-3957.03 3037.43 365.76
-3667.06 2859.27 350.52
-3397.69 2685.00 342.90
-3085.40 2488.30 320.04
-2802.34 2309.54 297.18
-2487.29 2110.42 281.94
-2201.70 1927.79 266.70
-1915.65 1748.08 251.46
-1624.53 1572.08 236.22
-1321.45 1378.05 220.98
-1031.71 1194.21 198.12
-745.89 1018.21 175.26
-461.91 833.41 160.02
-234.08 685.80 144.78
45.53 507.65 129.54
360.35 314.22 106.68
620.28 146.25 99.06
-35428.61 8030.81 1371.60
-34869.39 8056.27 1356.36
-34227.33 8086.81 1341.12
-33657.75 8122.44 1325.88
-33051.93 8158.07 1310.64
-32466.94 8192.66 1295.40
-31852.95 8223.72 1280.16
-31255.18 8254.78 1257.30
-30688.48 8280.66 1234.44
-30143.30 8311.72 1211.58
-29525.75 8346.40 1181.10
-28950.99 8382.03 1158.24
-28412.49 8407.48 1135.38
-27842.91 8438.02 1120.14
-27232.14 8467.01 1104.90
-26671.09 8498.07 1089.66
-26178.83 8523.95 1082.04
-25621.57 8550.00 1066.80
-25083.07 8575.46 1051.56
-24548.59 8601.60 1036.32
-24026.76 8626.36 1021.08
-23505.86 8653.36 998.22
-22971.27 8679.24 975.36
-22463.14 8710.30 952.50
-21934.87 8733.25 929.64
-21420.41 8756.89 906.78
-20878.57 8779.06 883.92
-20360.77 8804.51 876.30
-19874.05 8824.87 868.68
-19414.36 8850.06 861.06
-18922.11 8875.94 861.06
-18429.86 8901.83 868.68
-17947.85 8926.67 868.68
-17471.82 8953.59 868.68
-17010.64 8977.57 868.68
-16513.79 9005.35 876.30
-16053.29 9031.23 876.30
-15545.17 9062.29 868.68
-15079.26 9089.56 876.30
-14634.77 9108.88 876.30
-14206.03 9124.41 876.30
-13733.00 9064.10 868.68
-13337.98 8938.06 868.68
-13008.08 8779.06 868.68
-12713.40 8596.42 868.68
-12417.80 8387.12 876.30
-12127.83 8183.52 876.30
-11822.33 7974.82 868.68
-11496.12 7766.13 861.06
-11190.62 7582.89 838.20
-10869.59 7394.55 822.96
-10527.85 7185.86 792.48
-10227.52 7002.61 769.62
-9955.74 6836.45 754.38
-9652.77 6641.22 739.14
-9373.51 6463.75 716.28
-9108.86 6287.76 701.04
-8860.09 6127.29 685.80
-8580.94 5948.96 670.56
-8316.86 5780.99 662.94
-8039.67 5609.65 640.08
-7762.82 5434.86 624.84
-7494.49 5268.01 609.60
-7213.96 5093.83 594.36
-6928.13 4916.02 579.12
-6659.92 4742.61 563.88
-6390.66 4569.55 541.02
-6111.05 4391.39 525.78
-5821.89 4206.86 502.92
-5557.24 4041.21 487.68
-5303.18 3880.74 472.44
-5013.33 3704.23 457.20
-4738.90 3536.26 441.96
-4469.64 3368.28 426.72
-4202.23 3197.46 411.48
-3916.41 3021.47 396.24
-3656.71 2854.18 381.00
-3408.28 2700.53 365.76
-3127.75 2524.53 350.52
-2841.93 2343.36 327.66
-2587.86 2182.89 312.42
-2312.62 2006.90 297.18
-2046.36 1836.16 281.94
-1766.75 1658.01 266.70
-1486.91 1484.08 251.46
-1248.96 1332.24 236.22
-953.82 1149.00 213.36
-650.62 956.09 198.12
-370.09 774.92 175.26
-100.14 609.28 160.02
190.97 422.93 144.78
445.04 262.46 129.54
725.57 91.64 129.54
-36320.25 -1647.62 1813.56
-35817.42 -1150.69 1783.08
-35299.16 -637.63 1752.60
-34774.69 -120.59 1722.12
-34211.79 426.21 1691.64
-33737.26 893.98 1653.54
-33197.37 1421.97 1630.68
-32684.30 1932.88 1592.58
-32192.39 2421.52 1562.10
-31669.42 2950.90 1531.62
-31182.69 3439.54 1501.14
-30683.19 3948.04 1478.28
-30122.13 4424.26 1440.18
-29525.75 4778.24 1409.70
-28899.44 5045.43 1379.22
-28237.82 5273.19 1356.36
-27599.55 5475.58 1325.88
-26988.55 5663.92 1295.40
-26377.55 5852.25 1272.54
-25744.81 6044.47 1242.06
-25088.47 6241.17 1219.20
-24461.71 6432.52 1196.34
-23866.25 6615.77 1173.48
-23219.00 6793.92 1150.62
-22576.94 6951.71 1127.76
-22013.23 7084.92 1112.52
-21401.54 7221.49 1097.28
-20806.42 7354.09 1082.04
-20197.73 7488.68 1066.80
-19666.93 7608.34 1051.56
-19049.14 7747.49 1028.70
-18514.55 7866.55 1013.46
-17921.96 8000.27 998.22
-17376.55 8125.37 982.98
-16881.19 8239.51 975.36
-16302.07 8358.31 960.12
-15762.75 8422.75 944.88
-15250.14 8438.02 929.64
-14742.70 8397.30 914.40
-14240.44 8326.04 906.78
-13734.95 8213.37 899.16
-13194.49 8061.36 883.92
-12745.16 7913.14 868.68
-12262.46 7730.50 868.68
-11739.49 7511.62 861.06
-11321.34 7323.03 838.20
-10855.55 7105.62 815.34
-10419.11 6895.72 792.48
-9992.79 6681.16 762.00
-9622.28 6494.81 739.14
-9186.76 6269.64 716.28
-8788.05 6050.77 685.80
-8420.77 5842.59 662.94
-8076.72 5635.53 647.70
-7722.09 5418.13 624.84
-7421.08 5231.26 617.22
-7113.39 5045.43 594.36
-6799.72 4844.41 571.50
-6509.76 4666.26 548.64
-6245.34 4496.73 533.40
-6002.32 4345.58 518.16
-5753.78 4182.70 502.92
-5477.85 4004.98 487.68
-5215.27 3841.66 472.44
-4959.13 3673.69 457.20
-4697.47 3510.81 441.96
-4448.93 3353.01 426.72
-4179.68 3185.04 411.48
-3916.41 3016.29 396.24
-3662.34 2855.82 381.00
-3392.40 2685.00 365.76
-3133.73 2523.33 350.52
-2885.19 2365.53 335.28
-2630.21 2203.60 320.04
-2402.61 2058.66 304.80
-2116.78 1877.49 281.94
-1859.96 1714.00 266.70
-1603.36 1551.38 251.46
-1368.05 1403.50 236.22
-1079.35 1225.26 220.98
-824.37 1067.56 205.74
-570.65 909.77 190.50
-291.04 731.61 175.26
-73.68 598.92 160.02
231.94 400.76 144.78
475.30 248.05 129.54
22621.39 9410.23 3017.52
22036.29 9165.91 2994.66
21304.81 8865.59 2971.80
20622.01 8580.89 2948.94
19954.75 8305.68 2926.08
19288.17 8032.20 2903.22
18653.01 7773.38 2880.36
17959.63 7483.50 2857.50
17324.47 7224.68 2834.64
16661.57 6951.71 2811.78
16019.51 6687.03 2788.92
15366.05 6417.17 2766.06
14662.08 6179.05 2743.20
13958.68 6040.59 2720.34
13270.01 6015.14 2697.48
12486.65 6096.23 2674.62
11798.56 6256.70 2644.14
11131.64 6499.99 2598.42
10443.54 6857.16 2552.70
9805.97 7231.67 2506.98
9167.93 7618.09 2468.88
8537.37 8000.27 2430.78
7926.37 8366.76 2392.68
7273.95 8758.70 2354.58
6643.16 9129.59 2316.48
6039.75 9481.58 2278.38
5363.28 9883.61 2232.66
4814.42 10204.29 2186.94
4144.86 10599.68 2133.60
3556.18 10937.26 2080.26
2919.29 11308.84 2026.92
2313.47 11665.15 1981.20
1651.84 12049.06 1935.48
1106.66 12370.00 1882.14
439.05 12759.52 1821.18
-195.42 13125.75 1752.60
-819.19 13487.40 1691.64
-1449.86 13855.61 1638.30
-2072.25 14220.38 1584.96
-2672.89 14576.68 1524.00
-3330.49 14963.53 1463.04
-3916.41 15305.00 1417.32
-4567.45 15682.87 1356.36
-5194.56 16052.81 1318.26
-5784.84 16404.03 1280.16
-6416.55 16775.61 1257.30
-7039.29 17132.26 1226.82
-7679.74 17504.96 1196.34
-8288.44 17820.72 1173.48
-8948.57 18048.13 1173.48
-9627.57 18162.36 1181.10
-10315.55 18160.11 1181.10
-10982.59 18043.30 1173.48
-11584.15 17819.08 1158.24
-12115.29 17499.78 1143.00
-12549.32 17111.55 1127.76
-12909.24 16666.38 1112.52
-13266.98 16144.43 1097.28
-13598.37 15640.51 1082.04
-13877.86 15191.12 1043.94
-14184.86 14689.01 1043.94
-14478.62 14215.29 1036.32
-14701.27 13741.91 1021.08
-14815.19 13212.54 1028.70
-14809.44 12706.46 1028.70
-14680.56 12240.33 1036.32
-14478.62 11822.94 1036.32
-14243.08 11407.19 1021.08
-14002.25 11003.43 1021.08
-13756.13 10604.85 1021.08
-13507.35 10206.27 998.22
-13269.17 9828.40 975.36
-13036.28 9450.52 952.50
-12766.33 9005.35 929.64
-12547.25 8692.53 914.40
-12210.68 8305.68 891.54
-11892.98 8021.84 876.30
-11485.77 7735.59 853.44
-11138.84 7516.71 830.58
-10707.35 7255.74 807.72
-10325.91 7028.07 784.86
-9939.86 6800.22 762.00
-9574.64 6577.63 739.14
-9197.11 6351.08 716.28
-8839.83 6127.12 693.42
-8487.73 5903.15 670.56
-8092.60 5651.06 640.08
-7737.97 5433.66 624.84
-7388.63 5216.25 601.98
-7017.20 4981.84 579.12
-6684.66 4771.08 556.26
-6354.42 4564.46 533.40
-6085.16 4391.39 518.16
-5763.67 4191.33 502.92
-5456.68 3994.62 480.06
-5163.49 3811.12 464.82
-4889.06 3638.06 441.96
-4599.21 3451.11 426.72
-4318.68 3275.11 419.10
-4019.16 3088.33 396.24
-3729.20 2905.08 381.00
-3428.88 2706.57 365.76
-3138.34 2524.53 342.90
-2854.12 2350.26 320.04
-2584.87 2177.20 312.42
-2291.45 1986.19 297.18
-2021.51 1815.37 281.94
-1756.40 1647.83 266.70
-1444.57 1458.20 243.84
-1155.76 1276.25 228.60
-878.22 1106.21 205.74
-617.25 935.22 190.50
-306.57 738.69 175.26
-47.67 578.91 160.02
270.37 376.34 144.78
413.28 288.34 129.54
-35309.29 8549.83 1531.62
-34658.25 8560.19 1501.14
-33980.74 8565.36 1470.66
-33269.41 8580.55 1440.18
-32560.03 8590.73 1394.46
-31879.41 8601.60 1356.36
-31238.96 8611.95 1310.64
-30509.56 8626.36 1257.30
-29809.84 8643.01 1219.20
-29142.92 8658.54 1181.10
-28470.71 8674.07 1158.24
-27718.64 8692.53 1143.00
-27025.72 8710.30 1135.38
-26379.97 8731.01 1135.38
-25642.28 8748.52 1135.38
-25019.66 8762.06 1135.38
-24347.45 8782.77 1127.76
-23695.37 8799.42 1127.76
-23045.37 8819.00 1127.76
-22415.50 8834.53 1127.76
-21795.07 8850.32 1127.76
-21215.14 8870.68 1127.76
-20668.80 8886.30 1135.38
-20118.33 8901.83 1135.38
-19594.44 8921.58 1135.38
-19050.75 8936.85 1135.38
-18553.67 8947.03 1135.38
-18032.88 8963.94 1135.38
-17538.79 8977.57 1127.76
-17074.85 8989.82 1120.14
-16540.25 9010.53 1104.90
-16090.35 9020.88 1082.04
-15571.63 9041.59 1051.56
-15105.15 9059.01 1028.70
-14587.36 9069.20 1005.84
-14110.76 9041.59 990.60
-13623.80 8938.06 982.98
-13173.78 8773.97 975.36
-12739.87 8565.36 960.12
-12300.55 8301.37 922.02
-11871.81 8032.20 883.92
-11443.08 7752.67 845.82
-11024.93 7486.17 822.96
-10612.07 7224.68 815.34
-10180.92 6956.80 784.86
-9808.11 6722.66 762.00
-9394.68 6468.93 739.14
-8992.41 6225.64 708.66
-8575.76 5974.41 678.18
-8171.99 5733.89 655.32
-7790.90 5506.13 624.84
-7425.68 5278.36 601.98
-7039.29 5035.08 579.12
-6668.78 4791.79 548.64
-6303.56 4553.67 518.16
-5914.29 4294.68 487.68
-5562.19 4070.72 464.82
-5223.78 3849.69 441.96
-4895.62 3642.63 419.10
-4551.57 3435.58 411.48
-4244.58 3249.23 396.24
-3937.58 3062.88 365.76
-3646.46 2876.53 342.90
-3365.93 2700.53 320.04
-3097.49 2528.42 304.80
-2817.88 2350.26 289.56
-2543.45 2172.11 266.70
-2284.55 1999.05 251.46
-2021.51 1825.72 236.22
-1735.69 1639.37 220.98
-1497.50 1489.26 205.74
-1238.14 1323.62 190.50
-968.20 1157.97 167.64
-671.79 966.45 152.40
-401.85 795.63 137.16
-153.07 645.51 121.92
112.84 472.02 106.68
397.40 293.52 83.82
682.42 115.71 76.20
9065.52 -30068.58 3025.14
8739.19 -29341.22 3009.90
8433.81 -28658.62 2987.04
8109.32 -27943.60 2956.56
7791.74 -27228.31 2918.46
7470.71 -26510.60 2880.36
7191.10 -25874.34 2842.26
6864.89 -25146.46 2811.78
6564.57 -24459.29 2773.68
6246.18 -23730.03 2735.58
5944.48 -23041.57 2697.48
5642.78 -22353.11 2659.38
5352.93 -21695.37 2621.28
5049.96 -21002.08 2590.80
4798.89 -20427.93 2560.32
4473.02 -19687.28 2514.60
4172.36 -18987.44 2484.12
3874.91 -18315.54 2446.02
3582.07 -17653.83 2415.54
3308.56 -17026.63 2392.68
3012.49 -16350.76 2385.06
2705.15 -15660.06 2377.44
2442.92 -15062.97 2377.44
2149.39 -14407.38 2377.44
1884.74 -13801.74 2369.82
1620.09 -13201.29 2369.82
1344.85 -12585.30 2369.82
1069.61 -11995.19 2362.20
739.37 -11449.00 2339.34
328.59 -10985.80 2308.86
-153.07 -10602.75 2278.38
-674.21 -10257.91 2247.90
-1176.47 -9942.33 2217.42
-1709.22 -9619.24 2171.70
-2227.59 -9311.16 2133.60
-2791.99 -8975.21 2095.50
-3297.13 -8671.96 2065.02
-3826.43 -8356.20 2034.54
-4371.26 -8028.45 2011.68
-4847.63 -7743.40 1981.20
-5391.32 -7412.55 1943.10
-5929.83 -7091.87 1905.00
-6406.20 -6796.65 1866.90
-6906.96 -6487.53 1821.18
-7446.97 -6155.29 1775.46
-7949.69 -5840.48 1729.74
-8404.89 -5555.78 1684.02
-8923.60 -5229.67 1645.92
-9461.19 -4892.95 1600.20
-9947.92 -4592.63 1554.48
-10432.11 -4287.57 1516.38
-10993.17 -3935.58 1470.66
-11501.30 -3620.42 1432.56
-11972.49 -3325.20 1386.84
-12475.22 -3009.01 1348.74
-13033.97 -2658.39 1310.64
-13494.81 -2373.35 1264.92
-14007.43 -2052.67 1226.82
-14509.69 -1737.09 1188.72
-15037.84 -1406.23 1150.62
-15519.39 -1105.91 1112.52
-16021.54 -793.52 1074.42
-16560.16 -454.38 1028.70
-17058.97 -146.47 990.60
-17538.79 156.43 952.50
-18075.23 490.22 914.40
-18558.85 787.60 883.92
-19080.90 1116.56 868.68
-19516.77 1439.14 861.06
-19977.61 1897.24 853.44
-20308.99 2365.53 853.44
-20573.07 2925.44 845.82
-20742.91 3549.46 845.82
-20795.84 3994.62 845.82
-20749.12 4778.24 845.82
-20593.78 5389.05 853.44
-20382.98 5915.06 853.44
-20123.62 6468.93 853.44
-19853.34 7007.70 853.44
-19542.66 7598.16 853.44
-19234.40 8109.84 853.44
-18837.42 8586.07 853.44
-18392.81 8969.12 853.44
-17884.68 9264.17 853.44
-17323.62 9466.05 853.44
-16773.14 9574.75 853.44
-16201.50 9647.22 853.44
-15648.84 9674.92 853.44
-15094.80 9634.20 853.44
-14587.13 9517.81 845.82
-14131.93 9346.99 853.44
-13703.20 9134.76 853.44
-13253.29 8870.77 853.44
-12824.55 8606.77 853.44
-12438.16 8363.48 853.44
-12009.43 8104.66 845.82
-11617.75 7861.37 822.96
-11211.34 7603.25 800.10
-10818.50 7359.27 777.24
-10416.23 7110.80 754.38
-9984.16 6839.73 723.90
-9616.53 6610.68 701.04
-9248.89 6381.62 678.18
-8834.66 6122.03 655.32
-8451.49 5882.79 640.08
-8094.21 5653.74 617.22
-7721.40 5424.68 594.36
-7405.54 5226.17 571.50
-7058.62 5007.30 556.26
-6742.76 4808.78 533.40
-6430.59 4605.44 510.54
-6121.41 4411.75 495.30
-5837.77 4227.56 480.06
-5546.66 4045.27 464.82
-5244.96 3849.69 441.96
-4971.90 3678.78 426.72
-4662.72 3487.34 411.48
-4392.78 3316.52 396.24
-4101.66 3130.17 373.38
-3812.04 2940.71 358.14
-3535.31 2767.82 342.90
-3254.78 2597.00 327.66
-2963.67 2415.83 312.42
-2661.96 2224.30 297.18
-2386.73 2053.48 281.94
-2100.90 1867.14 259.08
-1820.37 1691.14 243.84
-1549.28 1520.58 228.60
-1264.49 1342.42 205.74
-969.35 1154.09 190.50
-679.38 970.85 175.26
-391.26 790.45 152.40
-125.34 624.72 144.78
216.40 405.85 129.54
485.65 237.87 106.68
804.96 39.88 99.06
915.42 -31.90 99.06
-1619.24 -36251.67 2164.08
-1889.18 -35532.16 2125.98
-2129.21 -34878.73 2087.88
-2403.64 -34130.48 2049.78
-2652.18 -33468.77 2011.68
-2911.08 -32756.15 1981.20
-3191.27 -32001.87 1950.72
-3434.74 -31339.30 1927.86
-3694.10 -30640.49 1920.24
-3941.49 -29976.96 1905.00
-4200.39 -29274.53 1889.76
-4445.71 -28621.70 1882.14
-4694.48 -27943.60 1866.90
-4953.84 -27244.78 1859.28
-5181.44 -26644.33 1844.04
-5448.28 -25915.06 1828.80
-5702.00 -25243.17 1821.18
-5960.89 -24561.09 1805.94
-6213.58 -23895.67 1790.70
-6446.47 -23284.86 1783.08
-6706.52 -22611.59 1775.46
-6960.24 -21949.87 1767.84
-7239.85 -21221.99 1760.22
-7478.61 -20613.85 1752.60
-7759.14 -19899.51 1737.36
-8018.50 -19226.58 1714.50
-8246.10 -18636.48 1699.26
-8513.62 -17938.87 1676.40
-8772.52 -17266.98 1668.78
-9015.88 -16635.81 1645.92
-9274.78 -15953.74 1615.44
-9532.30 -15308.07 1577.34
-9802.24 -14723.14 1539.24
-10165.39 -14136.57 1501.14
-10580.32 -13599.87 1463.04
-11046.10 -13040.82 1402.08
-11453.66 -12543.89 1348.74
-11868.94 -12039.45 1310.64
-12321.72 -11482.73 1272.54
-12750.45 -10959.92 1242.06
-13204.85 -10425.89 1203.96
-13608.73 -9947.42 1173.48
-14054.03 -9418.05 1135.38
-14502.44 -8894.54 1089.66
-14923.93 -8394.94 1059.18
-15381.08 -7854.09 1021.08
-15804.52 -7346.81 998.22
-16228.77 -6842.46 990.60
-16656.70 -6337.42 975.36
-17088.31 -5814.26 960.12
-17508.87 -5302.14 944.88
-17890.89 -4770.79 922.02
-18186.38 -4199.57 906.78
-18382.80 -3600.06 883.92
-18476.00 -2953.62 861.06
-18455.29 -2358.08 838.20
-18329.29 -1730.44 815.34
-18144.04 -1145.51 800.10
-17958.21 -607.08 784.86
-17761.44 -16.63 762.00
-17567.10 573.04 739.14
-17404.16 1082.83 723.90
-17228.34 1634.20 716.28
-17046.89 2156.84 708.66
-16813.88 2676.03 701.04
-16572.01 3171.58 693.42
-16333.82 3632.28 701.04
-16063.08 4055.45 701.04
-15709.25 4424.26 701.04
-15281.20 4696.80 701.04
-14856.61 4859.68 701.04
-14432.02 4971.66 701.04
-13946.67 5102.37 701.04
-13517.94 5262.84 701.04
-13106.47 5455.22 701.04
-12702.82 5645.89 701.04
-12279.37 5837.41 701.04
-11884.47 6010.05 693.42
-11501.30 6148.00 693.42
-11067.27 6277.40 685.80
-10612.07 6396.46 678.18
-10209.80 6499.99 670.56
-9812.83 6556.93 662.94
-9347.04 6505.17 632.46
-8933.04 6320.54 601.98
-8575.76 6066.04 594.36
-8246.10 5816.71 571.50
-7939.10 5578.59 563.88
-7597.13 5322.88 556.26
-7281.27 5104.01 541.02
-6986.13 4915.67 533.40
-6675.45 4732.43 518.16
-6377.66 4558.85 510.54
-6090.34 4391.39 495.30
-5805.56 4218.33 472.44
-5515.59 4040.18 457.20
-5229.08 3860.04 434.34
-4951.19 3678.78 419.10
-4671.58 3505.72 403.86
-4392.78 3326.87 388.62
-4112.25 3145.70 373.38
-3837.01 2969.70 358.14
-3556.48 2788.53 335.28
-3281.25 2612.53 320.04
-2978.39 2421.52 304.80
-2750.56 2279.00 289.56
-2414.00 2070.31 274.32
-2143.25 1898.19 251.46
-1854.78 1719.09 236.22
-1587.48 1551.38 220.98
-1311.09 1378.05 205.74
-1021.13 1199.38 190.50
-731.16 1011.57 167.64
-444.19 831.86 152.40
-206.00 676.57 137.16
122.16 469.51 121.92
6927.03 -25177.00 3009.90
6611.17 -24459.29 2971.80
6288.53 -23730.03 2941.32
5960.36 -22979.45 2910.84
5642.78 -22259.94 2872.74
5332.22 -21552.85 2842.26
5023.50 -20851.96 2811.78
4710.86 -20147.98 2781.30
4388.33 -19418.11 2750.82
4060.17 -18672.71 2712.72
3747.88 -17963.55 2682.24
3435.59 -17259.56 2644.14
3141.94 -16595.09 2613.66
2820.91 -15867.20 2583.18
2519.90 -15183.84 2552.70
2212.90 -14490.20 2522.22
1914.77 -13815.89 2491.74
1598.91 -13133.99 2461.26
1267.53 -12543.37 2430.78
842.01 -11927.90 2400.30
381.52 -11379.20 2369.82
-94.28 -10914.54 2346.96
-596.54 -10481.88 2316.48
-1089.94 -10121.34 2286.00
-1637.30 -9764.17 2263.14
-2180.30 -9417.36 2232.66
-2703.96 -9087.19 2209.80
-3252.83 -8741.06 2179.32
-3760.26 -8425.48 2156.46
-4286.92 -8097.38 2133.60
-4811.39 -7768.86 2103.12
-5298.12 -7463.45 2080.26
-5811.31 -7144.93 2049.78
-6302.64 -6837.37 2026.92
-6806.40 -6523.76 2004.06
-7317.52 -6206.19 1981.20
-7812.07 -5897.42 1958.34
-8330.78 -5576.49 1935.48
-8828.33 -5265.91 1905.00
-9320.58 -4955.32 1882.14
-9807.54 -4649.92 1851.66
-10289.20 -4349.69 1828.80
-10770.86 -4054.64 1805.94
-11211.34 -3778.22 1783.08
-11682.53 -3488.08 1760.22
-12148.54 -3197.95 1737.36
-12588.67 -2917.99 1714.50
-13111.64 -2597.31 1691.64
-13544.40 -2325.73 1668.78
-14002.25 -2042.49 1645.92
-14475.98 -1740.80 1623.06
-14941.76 -1445.74 1600.20
-15428.72 -1140.34 1569.72
-15887.02 -856.50 1554.48
-16349.70 -570.94 1531.62
-16836.66 -270.71 1508.76
-17302.45 24.35 1478.28
-17773.52 314.22 1463.04
-18239.31 598.92 1463.04
-18705.10 883.62 1463.04
-19143.96 1143.91 1463.04
-19609.97 1428.96 1463.04
-20091.87 1711.84 1463.04
-20557.65 1996.54 1463.04
-21059.80 2294.27 1463.04
-21520.98 2565.95 1463.04
-21955.01 2824.76 1463.04
-22426.09 3109.46 1463.04
-22923.86 3409.00 1463.04
-23395.05 3699.14 1463.04
-23840.36 4024.91 1463.04
-24204.54 4429.44 1447.80
-24469.19 4895.31 1440.18
-24643.86 5464.71 1417.32
-24680.91 6018.59 1394.46
-24596.22 6536.22 1371.60
-24404.75 7058.61 1348.74
-24183.37 7524.91 1325.88
-23955.77 7995.96 1303.02
-23685.82 8544.66 1272.54
-23442.35 9005.35 1249.68
-23182.76 9384.78 1219.20
-22770.13 9771.46 1196.34
-22314.93 10019.92 1173.48
-21843.85 10144.16 1158.24
-21325.14 10190.74 1158.24
-20832.89 10216.62 1158.24
-20324.76 10242.51 1158.24
-19811.34 10268.39 1158.24
-19392.50 10290.82 1158.24
-18848.01 10320.15 1158.24
-18371.64 10351.21 1158.24
-17942.67 10372.26 1158.24
-17350.08 10397.80 1158.24
-16884.30 10366.74 1158.24
-16321.97 10224.65 1127.76
-15862.75 10025.10 1089.66
-15550.46 9858.16 1135.38
-15285.81 9698.99 1043.94
-14735.33 9341.82 998.22
-14359.53 9103.70 967.74
-13777.30 8741.36 1013.46
-13454.42 8544.66 937.26
-12972.76 8249.60 922.02
-12671.06 8063.25 906.78
-12391.91 7893.38 899.16
-11892.98 7587.03 876.30
-11892.98 7587.03 929.64
-11231.36 7172.92 868.68
-10919.07 6971.04 838.20
-10496.78 6692.12 815.34
-10146.29 6463.75 792.48
-9538.86 6071.13 754.38
-9316.21 5933.69 739.14
-8834.66 5633.38 708.66
-8463.11 5402.60 792.48
-8161.41 5216.25 731.52
-7642.69 4900.49 609.60
-7499.78 4812.49 640.08
-7079.33 4549.19 563.88
-6540.82 4208.15 533.40
-6250.63 4025.68 518.16
-5966.07 3841.66 502.92
-5639.86 3638.06 480.06
-5298.12 3424.27 457.20
-5017.36 3244.05 441.96
-4733.72 3067.97 457.20
-4500.71 2925.44 403.86
-4200.39 2737.11 381.00
-3942.87 2576.30 358.14
-3687.77 2416.43 342.90
-3492.97 2286.42 327.66
-3228.32 2115.60 304.80
-2990.13 1960.31 289.56
-2709.60 1779.14 274.32
-2502.02 1652.92 259.08
-2351.86 1556.21 243.84
-1957.99 1308.09 220.98
-1694.26 1143.91 198.12
-1433.98 981.98 182.88
-1174.63 821.51 167.64
-974.53 690.89 152.40
-705.27 522.92 129.54
-602.98 459.16 114.30
-602.98 459.16 114.30
58.65 39.88 106.68
13741.09 -33875.72 2369.82
13456.42 -33422.96 2377.44
13195.91 -33000.91 2377.44
12941.85 -32591.98 2377.44
12674.55 -32170.79 2377.44
12384.59 -31707.59 2377.44
12115.33 -31274.94 2377.44
11866.79 -30877.91 2369.82
11571.65 -30414.71 2377.44
11323.11 -30017.68 2369.82
11038.32 -29569.75 2369.82
10771.71 -29144.51 2369.82
10496.47 -28714.87 2369.82
10215.02 -28271.78 2362.20
9935.41 -27840.07 2339.34
9628.42 -27358.66 2308.86
9363.77 -26944.56 2286.00
9065.52 -26474.97 2263.14
8770.38 -26011.77 2240.28
8474.54 -25536.58 2209.80
8190.45 -25080.28 2186.94
7892.31 -24610.01 2164.08
7605.34 -24153.89 2141.22
7315.37 -23690.69 2118.36
7018.96 -23227.92 2087.88
6735.44 -22779.56 2065.02
6447.32 -22322.05 2042.16
6161.49 -21876.89 2011.68
5870.38 -21416.19 1988.82
5600.43 -20991.73 1965.96
5319.90 -20551.73 1943.10
5042.25 -20107.26 1920.24
4774.72 -19687.28 1897.38
4499.49 -19262.82 1882.14
4240.13 -18853.88 1866.90
3970.42 -18432.61 1851.66
3695.98 -18005.05 1836.42
3452.62 -17628.38 1821.18
3186.82 -17212.97 1813.56
2916.88 -16793.69 1798.32
2678.69 -16420.99 1790.70
2396.32 -15984.28 1783.08
2142.60 -15587.25 1775.46
1899.24 -15205.49 1767.84
1661.05 -14828.82 1767.84
1381.90 -14391.85 1760.22
1158.79 -14034.77 1760.22
889.54 -13612.29 1760.22
640.99 -13245.80 1760.22
340.67 -12874.23 1760.22
40.35 -12558.64 1760.22
-291.04 -12243.05 1760.22
-634.74 -11927.90 1760.22
-952.32 -11653.55 1760.22
-1306.95 -11342.97 1760.22
-1658.02 -11041.79 1760.22
-2005.63 -10737.33 1760.22
-2349.68 -10442.28 1760.22
-2678.07 -10151.02 1767.84
-3037.77 -9836.64 1760.22
-3371.92 -9545.30 1760.22
-3708.49 -9255.16 1760.22
-4038.15 -8967.01 1767.84
-4371.26 -8674.89 1767.84
-4720.95 -8371.73 1767.84
-5070.29 -8069.17 1767.84
-5412.03 -7768.86 1767.84
-5753.78 -7468.54 1767.84
-6081.25 -7175.99 1752.60
-6457.98 -6842.46 1729.74
-6820.43 -6521.78 1706.88
-7182.89 -6196.01 1691.64
-7552.71 -5856.01 1668.78
-7902.63 -5544.48 1653.54
-8277.85 -5198.61 1630.68
-8637.89 -4867.50 1615.44
-9003.00 -4536.04 1592.58
-9378.80 -4194.40 1569.72
-9756.33 -3839.30 1554.48
-10129.14 -3493.17 1531.62
-10495.63 -3143.59 1508.76
-10850.26 -2807.13 1493.52
-11236.65 -2434.43 1470.66
-11615.22 -2067.94 1447.80
-12004.14 -1694.21 1432.56
-12374.65 -1337.04 1409.70
-12702.59 -1014.29 1394.46
-13105.08 -622.70 1371.60
-13459.72 -275.88 1348.74
-13831.38 90.26 1333.50
-14174.27 428.10 1310.64
-14550.08 800.80 1295.40
-14918.75 1164.27 1272.54
-15275.22 1520.32 1249.68
-15619.27 1867.14 1234.44
-15980.23 2238.28 1211.58
-16339.12 2612.53 1188.72
-16684.43 2966.17 1173.48
-17037.80 3342.40 1150.62
-17360.67 3756.51 1127.76
-17543.97 4177.61 1112.52
-17694.13 4712.07 1089.66
-17787.33 5221.08 1074.42
-17784.11 5728.71 1051.56
-17647.53 6244.19 1028.70
-17418.89 6722.57 1013.46
-17170.12 7183.27 990.60
-16931.94 7602.56 975.36
-16653.36 8081.72 952.50
-16370.88 8529.13 937.26
-16037.42 8870.77 929.64
-15617.77 9135.37 914.40
-15105.15 9303.34 906.78
-14639.14 9389.87 891.54
-14136.88 9461.13 883.92
-13670.86 9517.12 868.68
-13194.49 9578.21 861.06
-12708.11 9636.87 853.44
-12246.93 9700.37 853.44
-11786.09 9756.36 845.82
-11337.22 9750.75 845.82
-10908.48 9636.87 845.82
-10538.20 9420.41 845.82
-10227.52 9150.64 845.82
-9963.45 8865.59 838.20
-9689.02 8550.00 838.20
-9442.32 8254.78 845.82
-9177.67 7933.84 845.82
-8944.77 7664.67 845.82
-8679.32 7348.74 822.96
-8420.42 7048.43 807.72
-8156.34 6748.11 784.86
-7907.80 6478.33 769.62
-7610.93 6179.05 739.14
-7338.23 5913.33 708.66
-7048.26 5638.47 685.80
-6773.83 5378.87 655.32
-6494.22 5129.46 624.84
-6229.46 4905.67 601.98
-5917.17 4657.20 571.50
-5657.81 4450.15 541.02
-5355.07 4218.33 510.54
-5075.58 4015.33 480.06
-4811.39 3821.30 449.58
-4542.14 3617.70 419.10
-4281.63 3420.05 388.62
-4013.98 3215.58 365.76
-3749.91 3017.07 342.90
-3516.90 2838.91 320.04
-3275.95 2659.12 304.80
-3043.06 2498.65 281.94
-2817.88 2345.17 266.70
-2564.16 2177.20 251.46
-2325.97 2019.41 236.22
-2085.02 1867.14 228.60
-1852.13 1711.84 213.36
-1595.88 1556.21 205.74
-1344.00 1396.09 198.12
-1095.23 1230.44 198.12
-881.32 1098.10 190.50
-674.21 970.85 182.88
-467.09 843.59 167.64
-264.23 712.80 160.02
-78.97 593.75 144.78
118.02 472.02 129.54
312.71 350.46 114.30
475.30 248.05 106.68
656.53 130.98 99.06
-26120.61 25476.57 1348.74
-25787.15 25036.58 1303.02
-25440.34 24578.73 1249.68
-25120.23 24156.60 1203.96
-24723.26 23649.31 1150.62
-24368.51 23194.22 1097.28
-24037.12 22756.47 1051.56
-23716.09 22323.81 1028.70
-23389.88 21901.34 1013.46
-23099.91 21524.67 1005.84
-22711.56 21030.93 998.22
-22411.24 20638.99 998.22
-22116.10 20252.14 998.22
-21785.63 19803.27 990.60
-21468.86 19381.74 998.22
-21153.00 18964.35 998.22
-20779.96 18488.47 998.22
-20441.21 18048.48 998.22
-20081.16 17584.93 998.22
-19739.42 17137.00 998.22
-19402.85 16689.07 998.22
-19049.14 16221.22 990.60
-18683.92 15744.99 998.22
-18324.00 15273.94 998.22
-17973.74 14826.10 998.22
-17630.61 14378.43 998.22
-17295.43 13935.33 998.22
-16984.75 13507.76 990.60
-16643.01 13054.74 990.60
-16317.95 12633.99 990.60
-15990.58 12214.88 998.22
-15666.90 11790.24 998.22
-15364.05 11395.37 998.22
-15010.57 10920.61 998.22
-14675.38 10479.15 998.22
-14344.00 10056.67 998.22
-13957.26 9595.46 998.22
-13581.46 9222.76 998.22
-13158.24 8891.04 990.60
-12734.57 8601.60 990.60
-12319.42 8326.04 990.60
-11903.57 8073.61 967.74
-11516.83 7847.57 937.26
-11056.00 7572.71 914.40
-10686.18 7338.56 883.92
-10268.95 7063.70 845.82
-9901.31 6814.28 807.72
-9516.42 6556.93 769.62
-9134.98 6305.27 723.90
-8762.16 6060.95 678.18
-8358.28 5801.35 632.46
-7985.47 5572.30 609.60
-7610.93 5345.66 594.36
-7256.30 5133.43 571.50
-6891.08 4916.02 556.26
-6556.36 4701.89 533.40
-6245.34 4491.56 510.54
-5927.75 4284.50 487.68
-5626.05 4092.98 472.44
-5344.72 3912.92 457.20
-5086.17 3746.16 434.34
-4801.03 3566.80 426.72
-4526.60 3398.82 411.48
-4233.99 3218.17 388.62
-3910.43 3022.16 373.38
-3630.59 2845.47 358.14
-3309.78 2635.31 335.28
-3037.77 2462.42 320.04
-2757.24 2281.25 297.18
-2470.95 2100.85 281.94
-2170.63 1912.51 266.70
-1936.82 1763.61 251.46
-1668.37 1596.93 228.60
-1430.19 1449.32 220.98
-1190.51 1297.73 205.74
-952.32 1147.62 198.12
-684.56 975.94 175.26
-441.20 818.14 160.02
-158.37 640.33 144.78
69.23 500.57 137.16
319.96 349.85 121.92
503.26 231.40 106.68
762.62 65.76 99.06
-9040.05 -35195.69 2423.16
-9272.94 -34471.00 2385.06
-9518.15 -33708.00 2354.58
-9756.33 -32969.94 2316.48
-9984.16 -32267.51 2286.00
-10199.22 -31592.94 2255.52
-10434.64 -30867.73 2217.42
-10675.59 -30128.02 2186.94
-10911.01 -29411.96 2148.84
-11136.08 -28709.70 2110.74
-11356.32 -28022.36 2080.26
-11591.28 -27296.55 2042.16
-11806.80 -26622.58 2019.30
-12044.99 -25884.52 1981.20
-12267.64 -25192.27 1950.72
-12475.22 -24537.54 1920.24
-12702.82 -23833.56 1889.76
-12930.42 -23134.74 1859.28
-13142.71 -22504.69 1836.42
-13380.90 -21786.99 1821.18
-13592.04 -21157.37 1813.56
-13819.64 -20494.79 1798.32
-14038.50 -19852.75 1790.70
-14258.96 -19185.17 1783.08
-14488.98 -18498.79 1783.08
-14698.28 -17865.20 1783.08
-14918.75 -17210.99 1783.08
-15136.22 -16564.55 1783.08
-15374.41 -15841.75 1783.08
-15576.92 -15240.78 1783.08
-15809.36 -14533.60 1783.08
-16011.30 -13927.88 1783.08
-16259.84 -13189.81 1783.08
-16466.15 -12564.59 1783.08
-16699.04 -11881.31 1783.08
-16910.76 -11244.62 1790.70
-17133.07 -10576.86 1783.08
-17357.56 -9906.70 1783.08
-17572.39 -9256.89 1783.08
-17799.99 -8573.61 1783.08
-18025.52 -7896.11 1767.84
-18242.99 -7244.57 1737.36
-18456.32 -6596.23 1699.26
-18683.12 -5926.24 1661.16
-18890.35 -5286.61 1623.06
-19112.89 -4597.72 1577.34
-19320.01 -3981.82 1539.24
-19530.81 -3329.94 1493.52
-19749.78 -2673.67 1447.80
-19967.25 -2017.04 1409.70
-20208.31 -1295.63 1363.98
-20412.55 -678.35 1325.88
-20619.67 -31.90 1303.02
-20811.26 650.17 1287.78
-20914.81 1342.42 1272.54
-20906.99 1970.66 1257.30
-20780.19 2645.49 1242.06
-20562.71 3251.21 1226.82
-20293.46 3811.12 1211.58
-20024.21 4340.49 1196.34
-19749.78 4895.31 1181.10
-19499.05 5407.77 1158.24
-19231.98 5964.23 1135.38
-18980.33 6479.28 1112.52
-18726.27 6991.74 1104.90
-18456.32 7514.56 1082.04
-18149.33 7980.43 1066.80
-17776.98 8371.85 1051.56
-17344.79 8668.89 1036.32
-16868.42 8870.77 1013.46
-16349.70 8979.47 982.98
-15841.57 9026.06 952.50
-15369.23 9048.83 922.02
-14825.54 9079.38 891.54
-14327.77 9103.70 861.06
-13819.64 9062.29 845.82
-13375.03 8922.53 838.20
-12951.59 8720.65 815.34
-12559.90 8487.72 792.48
-12194.69 8254.78 777.24
-11817.16 8005.36 754.38
-11459.88 7771.22 746.76
-11083.15 7530.09 739.14
-10719.43 7297.84 731.52
-10384.47 7079.74 723.90
-10035.94 6860.09 716.28
-9669.92 6624.22 701.04
-9325.87 6411.99 693.42
-8943.39 6172.93 670.56
-8560.22 5938.78 647.70
-8214.34 5723.53 624.84
-7850.85 5501.04 601.98
-7468.02 5262.84 586.74
-7131.11 5053.11 563.88
-6768.65 4829.14 548.64
-6406.20 4595.00 525.78
-6079.99 4391.39 502.92
-5733.06 4167.43 480.06
-5451.38 3989.45 472.44
-5133.80 3787.57 449.58
-4842.46 3602.43 441.96
-4662.72 3487.34 426.72
-4278.06 3246.12 403.86
-4001.10 3068.05 388.62
-3725.86 2892.06 373.38
-3450.62 2721.24 358.14
-3164.80 2538.60 335.28
-2900.15 2374.42 320.04
-2640.79 2208.78 304.80
-2333.80 2012.07 289.56
-2047.97 1836.08 274.32
-1793.91 1670.43 259.08
-1523.39 1505.31 243.84
-1216.97 1313.26 220.98
-933.10 1133.73 205.74
-689.74 981.03 190.50
-420.49 807.96 175.26
-105.44 609.28 160.02
185.33 426.21 137.16
466.21 257.28 121.92
24780.60 10229.74 3009.90
24143.71 9970.14 2994.66
23443.19 9688.63 2964.18
22745.66 9400.05 2941.32
22088.06 9130.28 2910.84
21383.86 8840.14 2887.98
20717.29 8565.36 2857.50
20045.08 8291.01 2834.64
19399.33 8021.84 2811.78
18712.04 7740.68 2788.92
18018.20 7455.63 2758.44
17366.81 7188.45 2735.58
16684.01 6908.92 2712.72
16038.26 6644.93 2682.24
15403.33 6401.98 2659.38
14771.62 6218.74 2628.90
14090.43 6111.76 2606.04
13425.35 6091.49 2583.18
12757.40 6152.57 2560.32
12121.43 6282.58 2529.84
11443.92 6505.17 2506.98
10877.80 6748.11 2476.50
10342.98 7033.16 2453.64
9744.87 7379.97 2430.78
9163.90 7725.41 2407.92
8620.22 8046.08 2385.06
8123.13 8341.31 2362.20
7595.90 8643.01 2331.72
7061.31 8953.59 2301.24
6526.71 9259.00 2270.76
6010.53 9557.84 2240.28
5452.23 9874.98 2209.80
4923.16 10183.93 2179.32
4414.80 10480.62 2148.84
3896.08 10786.03 2125.98
3343.88 11105.23 2095.50
2895.70 11360.60 2065.02
2344.54 11680.42 2026.92
1826.74 11980.73 1996.44
1276.04 12297.53 1965.96
778.50 12587.40 1935.48
268.18 12876.59 1905.00
-275.50 13187.09 1874.52
-793.53 13472.56 1844.04
-1317.54 13772.79 1813.56
-1849.60 14093.12 1783.08
-2333.80 14383.60 1752.60
-2905.90 14719.21 1722.12
-3408.16 15009.34 1699.26
-3942.87 15315.35 1661.16
-4474.82 15620.15 1630.68
-4990.89 15915.81 1600.20
-5467.26 16195.33 1569.72
-6028.21 16510.92 1539.24
-6551.18 16816.33 1508.76
-7071.05 17111.55 1478.28
-7616.23 17427.31 1463.04
-8145.99 17742.73 1455.42
-8558.38 17976.01 1463.04
-9264.43 18378.99 1463.04
-9849.88 18654.11 1463.04
-10410.94 18804.23 1455.42
-11014.57 18837.10 1447.80
-11584.15 18750.56 1447.80
-12081.23 18577.50 1432.56
-12596.96 18265.88 1402.08
-13009.81 17877.66 1371.60
-13348.56 17427.31 1348.74
-13650.15 16958.85 1318.26
-13957.26 16459.33 1280.16
-14255.97 15956.10 1249.68
-14544.79 15470.64 1219.20
-14830.61 14973.71 1188.72
-15105.15 14485.06 1158.24
-15354.62 13933.26 1120.14
-15486.94 13379.39 1089.66
-15493.50 12825.69 1059.18
-15386.37 12307.88 1028.70
-15162.11 11751.68 998.22
-14899.42 11257.08 967.74
-14613.59 10744.61 944.88
-14333.06 10252.86 914.40
-14069.56 9797.08 883.92
-13738.18 9333.88 861.06
-13349.83 8982.66 845.82
-12893.36 8643.01 845.82
-12474.76 8346.40 845.82
-12078.24 8073.61 853.44
-11651.46 7796.67 853.44
-11226.06 7530.09 830.58
-10807.92 7276.44 800.10
-10405.65 7038.33 769.62
-9976.91 6789.87 739.14
-9569.35 6551.75 708.66
-9181.58 6325.63 685.80
-8788.05 6096.58 662.94
-8383.71 5852.94 640.08
-8021.72 5633.38 624.84
-7679.97 5419.59 601.98
-7330.40 5190.37 586.74
-6980.95 4966.57 563.88
-6679.36 4771.08 541.02
-6345.90 4558.85 518.16
-6048.92 4371.03 495.30
-5721.33 4160.27 472.44
-5387.87 3953.21 457.20
-5086.17 3761.69 441.96
-4768.58 3564.99 426.72
-4466.88 3373.46 403.86
-4138.72 3166.40 388.62
-3837.01 2974.88 365.76
-3506.54 2757.47 350.52
-3238.90 2581.47 335.28
-2900.15 2364.07 312.42
-2561.40 2157.01 289.56
-2249.11 1960.31 274.32
-1979.16 1789.49 259.08
-1626.95 1576.57 236.22
-1357.70 1408.59 220.98
-1052.89 1220.09 198.12
-756.48 1028.56 182.88
-441.20 828.32 167.64
-153.07 640.33 152.40
138.04 459.16 129.54
17615.58 32552.67 2804.16
16936.00 32310.59 2758.44
16293.94 32086.63 2720.34
15614.82 31843.51 2674.62
14947.90 31605.40 2636.52
14254.52 31351.75 2590.80
13645.82 31123.99 2545.08
12978.90 30875.53 2499.36
12290.81 30611.53 2461.26
11613.07 30350.90 2415.54
10967.55 30104.25 2369.82
10305.93 29845.43 2331.72
9670.76 29591.79 2293.62
8998.21 29327.79 2247.90
8340.61 29063.11 2202.18
7664.71 28799.80 2156.46
6968.45 28523.56 2110.74
6362.63 28289.41 2065.02
5679.14 28024.73 2019.30
5065.84 27785.23 1973.58
4409.51 27536.77 1927.86
3742.59 27281.57 1882.14
3069.45 27021.98 1828.80
2442.92 26782.74 1790.70
1769.79 26523.15 1744.98
1101.83 26263.55 1691.64
480.48 26024.32 1653.54
-161.59 25774.90 1607.82
-803.65 25525.49 1562.10
-1404.30 25255.71 1516.38
-1989.75 24927.88 1470.66
-2587.86 24493.06 1424.94
-3074.82 24094.48 1379.22
-3567.07 23670.02 1333.50
-4122.84 23188.61 1287.78
-4666.41 22720.84 1234.44
-5139.10 22303.45 1188.72
-5634.68 21870.80 1143.00
-6105.88 21453.41 1120.14
-6599.97 21019.71 1089.66
-7097.51 20579.72 1066.80
-7576.41 20155.43 1043.94
-8001.01 19778.77 1013.46
-8478.99 19347.75 990.60
-8938.22 18943.99 967.74
-9357.63 18562.23 944.88
-9802.24 18167.53 914.40
-10220.39 17779.30 891.54
-10615.87 17376.24 876.30
-10966.71 16945.91 845.82
-11273.70 16511.09 822.96
-11533.06 16107.34 792.48
-11817.16 15660.87 769.62
-12104.70 15211.82 746.76
-12353.48 14818.42 731.52
-12588.67 14398.53 708.66
-12739.87 13995.38 693.42
-12837.21 13502.67 678.18
-12882.78 13058.45 670.56
-12893.36 12613.28 670.56
-12863.10 12158.89 670.56
-12790.61 11736.41 670.56
-12692.23 11308.84 670.56
-12573.14 10871.09 678.18
-12438.16 10454.74 678.18
-12262.46 10010.86 678.18
-12070.88 9624.02 678.18
-11832.69 9211.72 678.18
-11584.15 8850.32 678.18
-11300.17 8472.19 678.18
-11014.57 8096.99 678.18
-10754.99 7768.20 678.18
-10416.23 7390.32 678.18
-10061.83 7089.15 678.18
-9685.80 6820.92 678.18
-9305.85 6549.60 670.56
-8913.02 6256.70 662.94
-8537.21 5977.18 647.70
-8140.24 5697.65 617.22
-7775.02 5444.01 586.74
-7421.08 5210.90 571.50
-7018.12 4952.25 548.64
-6644.38 4717.16 533.40
-6282.39 4496.73 510.54
-5948.93 4289.68 480.06
-5620.76 4092.98 449.58
-5256.69 3872.20 434.34
-4946.02 3678.78 411.48
-4635.34 3485.36 396.24
-4302.80 3280.28 381.00
-3967.38 3067.97 358.14
-3672.93 2876.53 342.90
-3366.74 2676.03 320.04
-3045.71 2462.25 304.80
-2730.77 2260.54 281.94
-2414.00 2060.13 266.70
-2118.85 1871.79 243.84
-1846.84 1701.49 228.60
-1508.09 1484.08 205.74
-1275.19 1344.32 190.50
-909.98 1106.21 175.26
-658.67 950.49 152.40
-337.64 746.88 137.16
-32.14 558.55 121.92
211.22 405.85 99.06
450.33 257.28 83.82
-23338.10 28004.37 1432.56
-23115.44 27469.91 1432.56
-22897.97 26955.81 1432.56
-22669.56 26413.49 1432.56
-22436.67 25854.45 1432.56
-22224.84 25352.42 1432.56
-22002.18 24812.87 1432.56
-21780.34 24286.01 1432.56
-21536.86 23695.90 1432.56
-21329.05 23204.40 1432.56
-21111.58 22685.21 1432.56
-20869.94 22101.58 1432.56
-20642.34 21552.88 1432.56
-20407.38 20974.94 1432.56
-20187.14 20450.31 1432.56
-19967.25 19911.11 1432.56
-19768.99 19430.57 1432.56
-19558.19 18918.54 1432.56
-19356.14 18426.35 1440.18
-19165.59 17960.48 1432.56
-18978.26 17498.40 1440.18
-18810.96 17096.02 1440.18
-18615.11 16619.80 1432.56
-18429.86 16169.45 1417.32
-18237.81 15706.69 1394.46
-18056.59 15258.76 1371.60
-17874.09 14823.60 1348.74
-17683.54 14362.90 1325.88
-17530.05 13990.20 1310.64
-17328.91 13508.80 1280.16
-17124.56 13024.20 1257.30
-16953.11 12633.99 1234.44
-16741.39 12158.89 1211.58
-16508.49 11810.95 1188.72
-16213.24 11466.63 1165.86
-15857.45 11101.78 1150.62
-15534.92 10769.29 1135.38
-15229.43 10453.70 1135.38
-14944.64 10163.57 1135.38
-14650.65 9864.63 1127.76
-14385.42 9598.57 1135.38
-14121.34 9344.06 1127.76
-13861.99 9108.88 1127.76
-13619.08 8921.58 1120.14
-13318.76 8784.15 1082.04
-13015.10 8663.71 1051.56
-12697.41 8509.28 1021.08
-12417.80 8356.58 998.22
-12138.19 8203.88 967.74
-11834.76 8037.37 937.26
-11553.08 7883.20 914.40
-11263.11 7716.44 883.92
-10983.51 7552.35 853.44
-10719.43 7399.64 830.58
-10439.82 7231.67 807.72
-10183.34 7074.57 777.24
-9929.27 6914.10 746.76
-9652.77 6737.93 723.90
-9399.97 6582.81 693.42
-9145.91 6422.34 670.56
-8891.84 6267.05 647.70
-8648.36 6122.11 624.84
-8389.01 5966.82 601.98
-8129.65 5806.35 586.74
-7880.88 5645.89 579.12
-7643.73 5480.67 563.88
-7393.92 5319.78 548.64
-7146.64 5160.00 541.02
-6898.10 4992.03 525.78
-6637.02 4817.67 518.16
-6385.49 4645.90 502.92
-6160.65 4501.91 495.30
-5901.29 4325.91 487.68
-5629.50 4147.07 464.82
-5386.14 3984.19 449.58
-5147.96 3831.48 434.34
-4878.70 3648.24 419.10
-4604.50 3466.63 403.86
-4366.31 3306.17 396.24
-4101.66 3135.35 381.00
-3821.13 2954.17 365.76
-3567.07 2798.88 350.52
-3299.43 2635.31 327.66
-3050.89 2482.61 304.80
-2776.45 2309.54 289.56
-2517.56 2141.57 274.32
-2264.99 1981.02 251.46
-1968.69 1795.44 228.60
-1714.97 1637.65 213.36
-1428.69 1453.03 198.12
-1179.92 1297.73 182.88
-927.93 1138.82 160.02
-677.08 976.80 144.78
-430.84 823.23 129.54
-218.55 685.80 121.92
53.35 516.10 106.68
7998.86 -27589.70 3009.90
7688.18 -26887.27 2979.42
7320.55 -26052.49 2948.94
6992.50 -25314.00 2918.46
6680.21 -24610.01 2895.60
6373.21 -23916.38 2872.74
6066.22 -23217.57 2849.88
5738.05 -22466.99 2819.40
5436.35 -21778.54 2796.54
5094.03 -21008.20 2766.06
4780.02 -20298.09 2735.58
4493.39 -19649.15 2712.72
4172.36 -18911.08 2682.24
3872.03 -18234.10 2659.38
3562.62 -17533.91 2628.90
3250.68 -16834.32 2606.04
2922.17 -16084.53 2575.56
2631.05 -15427.13 2552.70
2329.01 -14742.29 2529.84
2018.33 -14034.77 2499.36
1715.36 -13361.75 2476.50
1445.42 -12782.00 2446.02
1069.61 -12124.60 2423.16
630.29 -11518.96 2400.30
169.80 -11016.86 2369.82
-368.71 -10558.23 2346.96
-968.20 -10116.17 2316.48
-1465.74 -9774.53 2278.38
-2063.85 -9391.48 2240.28
-2641.83 -9041.38 2202.18
-3217.73 -8692.67 2156.46
-3791.33 -8344.04 2118.36
-4413.95 -7973.15 2072.64
-4959.13 -7636.69 2034.54
-5499.02 -7305.40 1996.44
-6064.45 -6959.53 1950.72
-6674.07 -6585.88 1912.62
-7234.67 -6241.83 1866.90
-7753.85 -5923.31 1828.80
-8330.78 -5560.96 1790.70
-8870.67 -5229.67 1744.98
-9471.54 -4862.41 1706.88
-9958.27 -4557.00 1668.78
-10579.63 -4170.15 1623.06
-11083.15 -3852.76 1592.58
-11635.93 -3513.53 1546.86
-12189.39 -3169.48 1508.76
-12761.04 -2812.31 1470.66
-13285.05 -2486.19 1424.94
-13831.38 -2149.38 1386.84
-14400.95 -1793.08 1341.12
-14947.05 -1456.10 1303.02
-15465.77 -1129.98 1264.92
-16000.94 -775.06 1219.20
-16476.74 -358.71 1181.10
-16865.66 146.25 1158.24
-17148.95 707.63 1127.76
-17318.33 1333.97 1104.90
-17362.74 1897.24 1082.04
-17295.43 2518.24 1059.18
-17138.36 3088.76 1036.32
-16910.76 3596.04 1013.46
-16577.30 4087.80 990.60
-16249.48 4477.93 975.36
-15830.99 4890.14 960.12
-15431.37 5236.35 944.88
-14989.40 5578.59 929.64
-14587.13 5863.29 922.02
-14162.77 6132.21 906.78
-13724.37 6386.11 883.92
-13300.93 6619.05 868.68
-12894.17 6834.64 853.44
-12416.99 7059.04 845.82
-11956.96 7185.86 845.82
-11506.48 7221.49 830.58
-11030.11 7155.32 807.72
-10596.19 7027.98 792.48
-10196.46 6870.27 769.62
-9812.83 6681.16 746.76
-9450.83 6483.42 723.90
-9083.20 6264.55 701.04
-8743.64 6054.82 685.80
-8420.77 5858.12 662.94
-8057.96 5628.29 640.08
-7736.93 5424.68 624.84
-7415.90 5221.08 601.98
-7086.93 5014.37 586.74
