ply
format ascii 1.0
element vertex 685
property float x
property float y
property float z
property uchar red
property uchar green
property uchar blue
end_header
0.5639626644460766 -0.08835494207158646 0.8210599961771421 232 22 108
-0.8735738854913625 -0.483569728433868 0.0550362092618939 134 120 66
-0.6976291097702975 0.47510840991270226 -0.5362701036150774 59 195 199
0.05747572692236321 -0.3026106796799914 0.9513796914788331 248 6 3
0.8263914385986585 0.26351048343787536 0.4976338165048442 190 64 166
-0.452848538568832 -0.5713450599145393 -0.6844655021455242 40 214 28
0.44676321308145744 0.8371603022544496 -0.3155396326396591 87 167 240
-0.8043534333580824 -0.0031356565447595397 -0.5941428463787966 51 203 127
0.6302464034044372 0.022096241040962125 -0.776080683387772 28 226 132
0.028990553935728275 0.8654040704610564 -0.5002352872518436 63 191 254
0.9333452470236506 -0.14881735473412566 -0.32668034037618154 85 169 108
0.5381869851361829 0.13790658466123784 0.8314665013920277 233 21 159
-0.11700164244989698 -0.9359209332249472 -0.3322087030999801 85 169 1
-0.7845343063865976 0.3800476447392522 -0.4899690906890428 65 189 183
0.7249957147563921 -0.45408934321946187 -0.5178649263653465 61 193 60
0.3089551452473626 0.2841680435128082 0.9076316660800701 243 11 213
0.0481109532926625 -0.10603615541299637 0.9931976993119256 254 0 12
-0.8795891553837748 0.45405996983563207 -0.14195936574992984 109 145 186
-0.9232860669545115 0.040562648342383927 -0.3819653258178306 78 176 133
-0.3703962133096469 0.6103980182614988 0.7001577711261295 216 38 236
-0.7332689172827583 -0.20147199316771913 0.6494041352778699 210 44 94
-0.2148905517120572 0.7678177859125948 0.603554387293447 204 50 250
-0.9297879305408578 0.292150720030096 -0.2239249003716317 98 156 166
0.986444898635278 -0.0630743103338587 0.1514862810037414 146 108 119
-0.5755607256858891 0.34546570896946704 -0.7412039496482437 32 222 193
-0.7696949605255412 0.4200769240702993 0.4807338615130221 188 66 188
-0.5575412149795224 -0.7540429210169589 0.3472276873513551 171 83 25
-0.44050655619576695 0.38759196726711903 -0.8097693751053754 24 230 211
0.7533685286898494 0.5130076494555654 -0.4114110008006193 75 179 199
-0.8415006830209342 -0.5061545421687093 -0.18890256725964738 103 151 62
0.5878017564329243 -0.6360754738985578 -0.49989707604575395 63 191 34
0.5947853003569663 -0.7998227231353752 -0.08070971462956855 117 137 26
-0.4975582982995653 0.3950999356175611 0.7722252136962635 225 29 206
-0.9978727824097479 0.04684055212721072 -0.04534173356022153 121 133 133
-0.24595938637823556 0.3070947778779646 -0.9193458422446503 10 244 227
0.295731670525552 -0.8979709423843293 0.3258695531674687 169 85 7
0.7700071322965419 -0.1017878846263164 0.6298636699760953 207 47 111
-0.644133431158095 -0.6846375189267241 -0.3411210790062076 84 170 35
-0.4523758291822796 0.14237602400839444 -0.8803892190157749 15 239 166
0.6947701478124264 0.573213444924378 -0.43442005969640274 72 182 208
0.7068109757709296 -0.7065976870452821 0.0337335618042931 131 123 38
0.792724387303463 -0.4989655504375956 0.35017342167968213 172 82 60
0.7427225484407906 -0.3481544080586709 -0.5719717861808693 54 200 74
-0.1957683723926342 0.9710419598876451 0.13693887873171695 144 110 252
-0.655253170225888 -0.29236019353576953 -0.6965405947571548 38 216 76
-0.70924847575094 -0.013536609658868801 -0.7048286031681119 37 217 125
-0.1045336897330362 0.30135109336870086 0.9477659132065712 248 6 247
-0.8093388229315918 -0.2981861395445755 -0.5060194619569574 62 192 84
-0.144234057641167 0.1496306695964134 -0.9781652208765621 2 252 219
-0.8217606555415781 -0.4476409700620258 0.35260032178913914 172 82 67
0.8551668306929658 -0.5025578397802638 0.12698546908187147 143 111 63
-0.9226580892376549 -0.3768984802876876 -0.0815449932316592 117 137 79
0.31257175950976485 0.5954907220900113 0.7400606022898981 221 33 240
-0.8711019074520976 0.29860728580043194 0.3898912100832952 177 77 169
-0.8479074698136887 -0.5299237283231296 -0.015289368667886105 125 129 60
-0.30978672378014216 -0.44105653090506836 0.8423190145755659 234 20 24
-0.571605996274293 -0.7381268041025587 0.3583788583170273 173 81 27
-0.0854864059945148 0.9948520764168604 0.054418934565117816 134 120 254
-0.2828337729218786 0.04568477569743632 -0.9580803505783062 5 249 148
0.30275665589715334 -0.7785449192641335 -0.5497328587577575 57 197 9
-0.7406140165860116 0.6596330020921339 -0.1279655460944613 111 143 212
-0.4305191437549179 -0.7815094360483041 -0.45154874402216416 69 185 16
0.46478426658174704 -0.36870315681102256 -0.8050053215325064 24 230 49
0.8448221860010714 0.530696303834369 0.0680948392825047 136 118 195
0.5980139547862625 -0.773953279747546 0.20826817003303866 154 100 27
-0.25049805039504125 0.9115211108981827 -0.3261594566086141 85 169 250
-0.25606645447499116 0.31120083656461456 -0.9151961594183464 10 244 226
-0.7767380734412768 0.6161958031809531 -0.13031000502230805 110 144 206
-0.43662297824801716 -0.0038692425881739555 -0.8996362619568119 12 242 126
0.38003586629103775 0.7455961632783218 -0.5474112728443457 57 197 241
0.5039163825463313 0.6272281502394331 -0.5938460465041748 51 203 227
-0.6141637368646742 -0.3233719706622937 -0.7198843468991418 35 219 68
0.40886306718393983 -0.800830304916074 0.43760920353777877 183 71 14
-0.39514594054696733 0.31653091851926785 0.8623617937331183 237 17 207
-0.28697865181607807 -0.07551150596838208 -0.9549561591341318 5 249 95
0.2998197247701026 0.1854939516272015 0.9357885052449113 246 8 194
-0.5065873711629175 -0.8453711170492352 0.16946064391820492 149 105 19
0.8481029186993204 0.4526583861489453 0.27535763062375107 162 92 187
-0.016600469043094958 0.5703430479425161 -0.8212388398579247 22 232 254
-0.6092360455043557 0.7920449388076338 0.03868146542500828 132 122 228
0.44410631834895153 -0.8184727073168226 0.36451612499313457 173 81 16
-0.3724393854736986 -0.05121457711885893 -0.9266423103002097 9 245 110
-0.7684826328399482 0.04591242180399529 -0.6382213507455492 46 208 135
0.3561505110597846 0.856621289412089 -0.37330521024735797 79 175 245
-0.5396250174705716 -0.8318218673458594 -0.12991236094049263 110 144 21
0.42855644203287535 0.8376072374198767 0.33875284768391944 170 84 241
-0.9848300208464477 -0.15319496152745068 0.08149315187295336 137 117 108
0.8560320559934225 0.4366165236679284 0.2767221176050212 162 92 185
-0.43701323663759023 0.014566499469719154 -0.8993371159341397 12 242 132
-0.8917297225317354 0.4112037188290003 0.18902275940921687 151 103 181
0.6240334364723353 -0.2423671281892882 0.7428596404017416 222 32 82
-0.26519951809239084 -0.9606162618159708 0.08297959471022898 138 116 5
-0.23562771402797864 0.9670297561508204 0.09660761409347618 139 115 251
0.3075628373846333 0.4276571134779264 0.8500085260464401 235 19 231
0.27458645717362734 -0.961453555815984 -0.014468501844915327 125 129 5
0.3286037873762889 0.935518337092221 0.12971118643418622 144 110 247
-0.5062088549035755 -0.7953064011122966 0.3335270957014105 170 84 20
-0.2587096862340223 0.6613875940610298 -0.7040140259049221 37 217 246
0.8394446799176574 -0.12745834669542874 0.5282868531542402 194 60 108
0.32031306120278846 -0.3368332807166578 0.8854054911872593 240 14 35
-0.35647335382977446 -0.11076117563692917 -0.927716934188914 9 245 90
-0.48736882076682925 -0.38448789749463574 0.7839902354140036 227 27 49
0.8329323951612626 -0.3794104941396741 0.40282912261604276 178 76 75
-0.26404696700193603 -0.04307176899980547 -0.9635476230743896 4 250 107
0.4212117092828483 0.3807598330886477 0.8231662319782842 232 22 213
0.5774136699290212 0.8025446679317709 0.15005169027166199 146 108 231
-0.4370532155867697 -0.6027546608896132 -0.6675861783478685 42 212 25
0.9202300550057054 0.11133648632685852 -0.37520771937233066 79 175 143
-0.810153827149072 -0.34943823966755555 0.4706842816727064 187 67 77
-0.5340215776632742 0.8451839909495301 -0.02202217138822382 124 130 235
-0.8101891014863463 0.3655043075338165 -0.4582578106338966 69 185 180
-0.9782721440676634 -0.2007377251402933 0.051845711941845174 134 120 102
0.7966820800829801 0.02783442591097954 0.6037573254287372 204 50 132
0.2681453656875327 0.9038642426139547 -0.3333579064372123 84 170 249
0.15056843231892592 0.7681435197698103 0.6223220068619364 206 48 252
0.4610543582300697 0.8254543254215885 0.32565938555467566 169 85 238
0.5925533829904956 0.3534589891129248 -0.7238419933395606 35 219 193
0.8091578386809346 -0.25168531805040917 0.5309595961832341 195 59 90
0.34378556633877855 -0.45218930000556795 -0.8230044479452099 22 232 26
-0.8924551373938747 0.18757891493893597 0.410290114930413 179 75 154
0.5498602402652648 -0.5817163097118841 -0.5993828919735802 51 203 35
0.25015843690292405 0.8535837530419434 -0.4569633825473507 69 185 249
0.6118737423681794 -0.7065490020238226 0.3555264141234784 172 82 31
0.6850012301729533 0.43769780387541485 -0.5824035947212032 53 201 196
0.7498498326194054 0.5812344125552265 -0.31605661863379897 87 167 205
0.9402533932835997 -0.26749988807198916 -0.21063562448016704 100 154 93
0.2205448143795791 -0.657236336247188 0.7206943757007198 219 35 7
0.6884572866208793 -0.7220195394948438 0.06866111771789196 136 118 36
-0.500815014572818 -0.6741454929117241 -0.5428739960296833 58 196 26
0.11592649311406202 -0.797403916959734 0.5922060801879265 203 51 2
0.3762904989172423 -0.6600042496357881 0.6502306136189784 210 44 17
-0.5484640156740903 -0.799116382632177 -0.2461711407121383 96 158 23
-0.44575072382448305 -0.31140506817755836 -0.8392455991682528 20 234 55
-0.5927997492311504 0.021392167395513643 0.8050657317794663 230 24 132
-0.6552164582045268 0.36996668406817756 -0.6586471328241799 43 211 190
0.4554820524671439 -0.8900784635512317 -0.01721710203828586 125 129 14
0.45910877697691616 -0.29157017675295194 -0.8391698057789094 20 234 59
0.04451781223495513 -0.04935998091017477 0.9977884328244944 254 0 33
0.5245016521977591 -0.6212329001919363 0.5822093270988851 201 53 30
-0.5659619892410724 -0.4997539684060261 0.6556927617388473 211 43 43
0.5653523837170765 0.6750746652606208 0.47397349983799764 187 67 225
-0.6125397797450101 0.2900132883260589 -0.7353144299034535 33 221 182
-0.9421242569254443 -0.20093850768756705 0.26837585703817135 161 93 101
-0.1210990198040689 0.06807735333121949 -0.9903032370773661 1 253 190
-0.08910672846931364 -0.3771262701670493 -0.9218653737348994 9 245 4
-0.7819217880227918 0.6230109705839068 -0.02134591172423228 124 130 207
0.7209720571795399 -0.03534640963392601 0.6920620810969873 215 39 121
-0.15236499581417715 0.6233623776692454 0.7669447530018645 225 29 251
0.2639600116016418 -0.8679400246186072 0.4207198901172995 181 73 6
0.44227031026676866 0.5040258191131127 -0.7418591148755214 32 222 223
0.3370507741247579 0.07422299880279105 -0.9385561901722359 7 247 155
0.9314844906441531 -0.052389685472702834 0.3599888394734956 173 81 120
0.9224083529417701 0.2318894490970914 0.3088528999713267 166 88 158
-0.2750769259766149 -0.029101204763686103 -0.9609816880027204 4 250 114
-0.7850208548137968 0.426911820116006 -0.448874765778446 70 184 188
-0.03242229776685694 0.5930944815556431 0.8044797887801534 230 24 254
-0.9346198991540239 -0.1570146012486387 -0.31911135846292504 86 168 106
-0.28482597521710623 -0.34623894013603096 -0.8938639494772693 13 241 29
-0.7636358691295269 -0.3567891970730387 -0.538109401730511 58 196 74
0.1549138188864934 0.5166736598912661 -0.8420510898351519 20 234 249
-0.5340996740849984 0.6084418083717507 0.5869719788606713 202 52 223
-0.33248291112709416 0.10672306117176976 0.9370513870768131 246 8 166
-0.646675847050486 -0.5857341669372216 -0.4885957782501764 65 189 42
0.26644509915765113 -0.826576803029996 -0.4957598186900394 64 190 7
-0.478023266857213 0.22739841191259944 -0.8484006828160768 19 235 182
-0.2430323225081838 0.9418815124980341 -0.2319364279941678 97 157 250
0.8749846484435495 0.20322835979956683 0.4394315632283323 183 71 156
0.09482320371492477 -0.6610185440561535 -0.7443541122685633 32 222 2
-0.1645677611808192 -0.8326176528428016 -0.528833902236304 60 194 3
-0.4916380963172583 0.7827387874315028 0.38159136900590784 176 78 235
-0.7658228953249342 0.43660812506189645 0.47211083245999586 187 67 190
-0.24616262081484905 -0.6396146436035587 0.7282149900966455 220 34 9
-0.736762293587927 0.6701972725019584 -0.08953735911893412 116 138 213
-0.06784215232093414 -0.7174090476188164 0.6933409700595559 215 39 1
-0.41995709331720565 0.12408886464201195 -0.8990205745389925 12 242 163
-0.5517708312884948 0.629637906036962 0.5469049798827883 197 57 223
0.41929048536532243 0.030456592778208297 0.907341107212968 243 11 137
-0.6941543131469806 -0.6049356752071087 -0.39013153986977667 77 177 44
0.7017490266706873 -0.0941131787050345 -0.7061805811269362 37 217 111
-0.18047185790487424 -0.7976763001173359 -0.5754497621300061 54 200 4
-0.3344619282463912 0.5433594694378452 -0.7699972113754239 29 225 236
-0.0863701209988571 -0.6822816170160443 0.7259696944643177 220 34 2
0.48148136258185315 0.6802649403906201 -0.5526439254725126 57 197 231
-0.10572921046649705 -0.8094042034602646 -0.5776557534336395 53 201 2
0.5880229447714145 0.8006651284301595 0.11473608211138409 142 112 230
-0.6581255029995042 -0.09092716179500464 -0.7473975338128662 32 222 110
0.10415218976758882 -0.757155839969756 0.644877783278591 209 45 2
-0.15955022345864212 -0.9005703228329055 -0.40437213037860786 75 179 2
-0.8800611442636788 -0.29417129083218185 -0.3727675334674849 79 175 87
0.6752607689148237 -0.6134622878606283 0.40949592835260873 179 75 42
-0.5060174149694023 -0.8570997971354942 0.09657284037439418 139 115 18
0.5896220398337058 -0.4406455714858365 0.6768879748320695 213 41 51
0.18298011818927315 -0.9718128548916402 -0.14865413352745938 108 146 3
-0.1292027501750237 0.04483174261408336 -0.9906042419661825 1 253 169
-0.6488813168307204 -0.7531610102241559 0.10817360743803928 141 113 31
-0.1512806336586762 0.7458888111180657 -0.648663280391844 44 210 252
0.8472420780834327 -0.5310802163251371 0.011604522950651397 128 126 60
0.3321659465827068 -0.9011893745635382 -0.27843041339730323 92 162 8
-0.9195648725484913 0.24690134860799895 0.30567984760273026 166 88 160
-0.49043028293198915 0.8513729722477955 -0.1861241513323928 103 151 238
0.27941883974310777 -0.9593153874678314 -0.040485792125881215 122 132 6
0.1399669127080066 0.8330444693540707 0.5352066660885155 195 59 253
-0.44594124981309635 0.4827056201237736 0.753745106794105 223 31 221
-0.845243373886352 0.18654310055229195 -0.5007647257321088 63 191 155
0.8010779619160592 0.5225444264997874 0.2919270821051403 164 90 197
-0.14780573714954284 0.7652102125999952 0.626583429878536 207 47 252
-0.9995638356825568 0.02881126976548981 -0.006484530058117333 126 128 131
0.14930583846183676 -0.423112362461336 0.893691051389458 241 13 8
0.03631843110142536 0.904226526603181 -0.42550600483363077 73 181 254
-0.8227985194102959 -0.08358410797805657 0.5621532649996239 199 55 115
-0.5351711911545063 -0.585268589892348 -0.6091407668541726 49 205 34
-0.3148411425240899 -0.9250194153173055 -0.2126361593430337 100 154 7
0.30196040643647115 -0.3529470230038684 -0.8855779535972133 14 240 31
0.7106457127411604 -0.2410585760638269 -0.6609640185885222 43 211 87
-0.47102558786236853 0.5003390556915261 0.7264955092281178 220 34 220
0.2097055483241728 -0.8648576300541968 -0.45611935141922677 69 185 4
0.9807835124750867 -0.1787006740822091 0.07829285241703587 137 117 105
0.12250224646513601 0.9158686691264613 -0.3823320291625065 78 176 253
0.1700223470516598 0.40172389252748714 0.8998390498725919 242 12 244
-0.454138063881329 0.8497594226070305 -0.2677079427747411 93 161 240
0.9908316213716638 -0.12012785186337141 -0.06182230420076573 119 135 112
-0.9727538866688407 -0.18061275552833178 0.14535786360265224 146 108 104
0.9416638102818232 -0.036565776997494165 -0.3345627181233559 84 170 123
-0.45145994462055894 0.8854029386507054 0.11065963415761404 141 113 241
-0.6829171030105086 -0.19101669392253626 -0.705079323947766 37 217 93
-0.228158607604212 0.18736248235629266 0.955426056783776 249 5 208
-0.3671186773578504 0.20778641577702653 0.9066690036355931 243 11 190
-0.7968847158630571 -0.3177664168769364 -0.5138085771267815 61 193 80
-0.4488700128334608 -0.5033514746969642 -0.7383447734624253 33 221 33
0.6311107870597923 -0.5358749831204308 -0.560836140884704 55 199 45
-0.9098549887804087 0.15083274345827685 0.3865402733121761 176 78 148
0.29945557424250546 -0.3970974300108171 -0.8675482638642622 16 238 26
-0.4564823693294155 0.843807030837215 -0.28215871633016487 91 163 239
0.30689978767692944 -0.803568178832141 0.5099908845187842 192 62 9
-0.9546723347881404 0.07386910943159457 0.2883471655174432 164 90 137
0.4069876861643393 -0.5480448289864158 0.7307584339108564 220 34 26
-0.9608382652984492 -0.2722195543189694 0.051829935217484024 134 120 93
0.7803393183071958 -0.1822483012252593 0.5982107529996163 203 51 99
0.8202652486045072 -0.5716875813188131 0.018391065701346854 129 125 55
-0.7494308689014993 -0.6112685132000226 -0.25437015844587085 95 159 47
-0.62932034874475 0.5653229737384748 -0.5332596309671995 59 195 212
0.12235551768120427 -0.4510721549235878 -0.8840605399776393 14 240 5
0.1367109413273375 -0.03477135822503167 -0.9900005409940844 1 253 96
-0.07083483547769814 -0.15241830555509736 0.9857743586716792 253 1 12
0.4204029552878216 -0.8266914941758728 -0.3739552495186138 79 175 14
0.31419240592682535 0.14479230456891404 0.9382528020717742 247 7 181
-0.847046364250141 -0.36667825887560096 0.3847850195610212 176 78 77
0.1835530729458617 0.6258666733031464 -0.7580232032468293 30 224 249
0.9430550795472048 -0.27258109672308467 0.1906480072003256 151 103 92
-0.8167836205670795 0.3639088736106039 -0.44769950734928754 70 184 179
-0.2420800106544779 0.8583804785493288 0.4523054526389809 185 69 250
-0.30856698632375285 0.6828794137977674 0.662164723586431 211 43 243
0.6410732194306892 0.7619052982282185 0.09233333017140088 139 115 225
-0.6703450374943662 -0.08944450065729917 -0.7366391328247794 33 221 111
-0.7545090946377804 -0.319478732501959 0.5732794829643031 200 54 78
-0.7316542179841207 -0.1412037968800581 0.6668909903820115 212 42 103
-0.9047168450264723 -0.41257841561327707 0.10614368231498306 141 113 75
-0.12346639212724683 0.7620064045396944 -0.6356904037781037 46 208 253
-0.8493978544499367 0.1274270794580255 -0.5121382862827599 62 192 146
0.7247032487988575 -0.018071474356050048 -0.6888240871187503 39 215 124
0.7927869842665605 0.5201655134919421 0.31767378889545883 168 86 197
-0.20966717207058178 0.8730060013233294 -0.4403410026438328 71 183 251
-0.8209542570734241 0.24091475644463148 0.517681550685599 193 61 163
-0.6492745070522198 0.7354209397903386 0.19390372820034196 152 102 223
-0.5374353915188712 0.8242157356318829 -0.17841418407669174 104 150 234
-0.013432429165546362 0.80948542977977 -0.5869862935546055 52 202 254
0.2887127488732541 -0.6011956466774532 0.7451233072815051 222 32 13
0.0733984539965234 -0.8505224268272722 0.5207919627017756 193 61 1
-0.310725479178797 0.8614516213678816 0.40168492706567305 178 76 247
0.059143959995458704 0.838765102187921 -0.5412717389146988 58 196 254
0.41497421204497514 -0.7231439007769355 -0.5521406542782099 57 197 17
0.3358078032193308 0.7225725160409843 -0.6042533230022062 50 204 243
0.21165998221016044 -0.707059649988091 0.6747345428311142 213 41 6
0.4090067061960301 0.25812128605463097 0.8752639121843067 239 15 195
-0.8955806884676693 -0.3416077811952192 0.285025181818475 163 91 82
0.2618061984850561 -0.9252973825536294 0.2743761437774901 162 92 5
0.3525788039970961 -0.9308589152404491 0.09586379342250062 139 115 9
-0.8388384633140932 0.09983933699122298 -0.5351468389647871 59 195 143
-0.805445135676157 -0.2567727059555127 0.5341590689035436 195 59 89
0.7316081274266664 -0.38410114736439266 0.5632191904370836 199 55 68
0.41006098091304904 0.6916829914679178 0.5944952743686196 203 51 237
0.6701308784114632 0.5097704052457089 -0.5394986003087556 58 196 204
-0.051332453347622396 -0.9934368308824596 0.10221664384790596 140 114 1
0.6593546349744797 0.5503735707645308 0.5121917589551503 192 62 209
-0.05986987845420066 -0.6871429267172067 0.724051238460643 219 35 1
-0.36418900815407285 -0.24256396047537712 0.8991824572456095 242 12 57
0.03030513192109837 0.2673459584939617 -0.9631239470889454 4 250 254
-0.24662928868012454 -0.549903161481786 -0.7979852799127767 25 229 12
-0.20402338050588195 -0.974425521099721 -0.09417730106819366 115 139 3
0.884433666268013 -0.27043569188433075 0.3803177967526161 175 79 90
-0.9715053481595338 -0.13783614403044825 -0.19281741595675594 102 152 110
0.8352989981188705 -0.13211499678545754 0.5336864354337569 195 59 108
-0.3538560238259566 0.2758525117433005 0.8936953094690585 241 13 206
0.8167269256107742 -0.5686650318992128 0.09786322331417585 139 115 55
-0.5440500680737022 -0.15820618047661458 0.8240026261414468 232 22 92
0.8421690994166642 -0.3818856330204999 0.380676465361673 176 78 75
0.17490386864447438 0.010216781127176246 -0.9845325053631271 1 253 135
-0.9966173177910955 -0.061942627551196706 -0.05400956184728978 120 134 120
-0.23749286310523463 -0.6748067604018165 0.6987367001167777 216 38 8
0.18541039883091104 -0.8080008115021312 0.5592474162812557 198 56 4
-0.5505273118312893 -0.5106940072935345 0.6603872423376194 211 43 41
-0.14029520423035077 0.07569037593437257 0.9872123493255529 253 1 188
0.7354569067713171 -0.06169570990484304 0.6747568285402554 213 41 117
-0.22233942295373876 0.900880611416318 0.37279928242253835 175 79 251
0.31090189093782455 0.8588505837757663 -0.4070819192242645 75 179 247
0.2361832542821869 -0.9375811243449496 0.25526281685497443 160 94 4
0.6881166349751002 0.5825969119199605 0.43252321890491663 182 72 210
0.35419312405892395 0.00044859324707806916 0.9351721925043956 246 8 128
0.41555791221003724 -0.8398891027403543 -0.34913882152753706 82 172 14
-0.365115254130973 0.6919501725849692 -0.6228128208864252 48 206 240
0.9323436493650392 0.14300262552897447 -0.3320927108210907 85 169 147
0.3403460257799062 -0.33937415886874417 -0.876920613868756 15 239 38
-0.08046524864454356 -0.1917356487805783 0.9781425176053142 252 2 10
-0.3970794103608488 -0.5765538238914424 -0.71408236921495 36 218 23
-0.40646006443929356 -0.4955158278778881 0.7676289991516061 225 29 29
-0.4823785303520583 0.7249337935674245 -0.49171327864857517 64 190 233
-0.10659840142807442 -0.7231475546914545 0.6824180499933665 214 40 2
0.17363252242711813 -0.5617897604620516 -0.8088535171436093 24 230 6
-0.08943115600064952 0.9490286378603071 -0.302236187206955 88 166 254
-0.7663708284236586 -0.4558467548443279 0.45263615569144555 185 69 63
-0.039115788395463535 0.24278507242680367 0.9692911655972694 251 3 253
0.027409464866863416 -0.9640322152564021 0.2643683210665495 161 93 1
0.42337676766312016 -0.34290062912898783 0.8385530818893177 234 20 48
-0.29727878432470295 -0.947025473487004 -0.12152397688169359 112 142 6
-0.23947022251597316 -0.8058033676867591 0.5416040483165059 196 58 6
-0.9885930175695973 0.056422508124981646 0.13964363998952667 145 109 135
0.8594518849608291 0.2723320448654648 -0.4326403989188621 72 182 166
0.0446375217543453 0.016282527280281178 0.99887054764719 254 0 171
0.023630561712709327 0.9925170990955511 -0.11979734786752871 112 142 254
-0.4283287309925804 -0.6797261837312842 -0.5954047475091127 51 203 20
0.1088024971538915 -0.8272318018393549 0.5512255097858696 197 57 2
-0.4943294982282623 -0.4548255283265596 -0.74079152665501 33 221 42
0.7776563778149437 -0.018803464903558324 -0.6284082970102816 47 207 124
-0.6996163834479912 -0.013829893678187903 -0.7143848053059383 36 218 125
-0.8739216587299278 -0.3272143564151039 -0.3594324684256849 81 173 83
0.5121292953228495 0.6972295895494693 0.5015919500239217 191 63 230
-0.5842044660489726 0.6043895638782221 -0.5416810841477919 58 196 219
0.0938280223746656 0.7902778189793294 -0.6055223125918099 50 204 254
-0.27010952197886995 0.38356118695589597 -0.8831317353585084 14 240 231
-0.1089253523319452 -0.941956336106451 -0.317574445584452 87 167 1
0.6817154483292915 0.711031184059929 -0.17233311580636057 105 149 219
0.12929335760029154 -0.9675454777808657 -0.21711512178160097 99 155 2
0.8637524161033152 -0.24132036370073323 -0.44237568393734206 71 183 93
-0.6246277885882932 -0.012227270631568657 -0.7808268819502828 27 227 125
0.8714299203985796 0.3758448711292577 0.31519918572223027 167 87 178
0.3098635150221704 0.1914831622936408 0.9312995225039753 246 8 194
0.611265708911735 0.7841970145976669 -0.10672054818422083 113 141 228
-0.5055068511210674 -0.05152903960903164 0.8612825213288806 237 17 115
-0.5150284037110104 -0.7558124150663401 0.40434309268550006 179 75 23
-0.7253716256986663 0.6426872339525751 -0.24655450502000953 96 158 212
0.7204575578070169 0.4036176504952078 0.5639447664510038 199 55 190
-0.13632384282643123 -0.5059953105027192 -0.8516951071987506 18 236 5
0.055305375629942734 0.30214985037303943 -0.9516547605859915 6 248 252
0.25816964189667785 -0.75392411475523 0.6041083224004482 204 50 7
0.11901305111186591 -0.1564981846612076 0.980481622399314 252 2 26
0.6607384845995925 0.6916267655513089 0.29167974242663597 164 90 219
0.019139969104088526 -0.8942933737540447 -0.4470716086292028 70 184 1
-0.928438244804064 -0.35864412851921346 -0.09683395408555251 115 139 82
0.7371584152456239 0.6707508937013205 -0.08179675685160381 117 137 213
0.1334648260395383 -0.3164456584965571 0.9391747896046381 247 7 10
0.981308587589115 0.14713398820691884 0.12403646817844605 143 111 146
-0.15659431007955832 0.7978743129268598 0.5821295412725576 201 53 252
-0.9791210469824607 0.08017309383423385 0.18680002778644678 151 103 138
0.8487314702982277 -0.07186356745852363 -0.5239184278087028 60 194 117
0.13654774565499292 0.20273281665746637 -0.9696670140861086 3 251 233
0.21060994633082192 -0.546839386682016 0.8103148373809805 230 24 9
0.3106309904543893 0.35015217775620583 0.8836865056013425 240 14 223
0.5407172423333894 -0.8180724475996931 -0.19591409934362058 102 152 22
-0.03714290947251342 0.10121966473014768 0.9941705003407781 254 0 247
0.5562284763638484 -0.13680969952391167 -0.8196907881622977 22 232 97
0.7308617250770548 0.6426664151674943 0.22982823506513173 156 98 211
0.7676203898023614 0.6321054436006499 0.10583782561115118 140 114 208
-0.6703423516613697 -0.3112617901870798 -0.6736150455108905 41 213 74
0.7664713062583713 -0.46107266427202476 -0.4471395027770222 70 184 62
0.33135409885530165 0.7389785725891513 -0.5866132716073609 52 202 243
-0.4171493403900245 -0.7441501531809349 0.5217537516232715 194 60 17
-0.5229408794542523 0.11087654011141052 -0.8451267534805273 19 235 154
-0.2753569167161355 -0.6311906853237185 0.7251047422111911 219 35 11
0.19703191958073013 0.8533313942375658 0.4827048314186473 189 65 251
0.35132139274802365 -0.4450341369658926 0.8237219773276734 232 22 28
0.9524310537964585 -0.1576091742950563 -0.2608341157559688 94 160 107
-0.5476716053779827 -0.6620518095512019 -0.5116084578392761 62 192 30
0.27133680277111927 0.9276991082990419 -0.25641900070608914 94 160 249
0.8029745931945099 0.06070000014406226 0.5929142540592376 203 51 137
-0.41271521525493815 0.8392148984333629 -0.35409674574126004 82 172 241
0.6068350372938811 0.43521582407823156 0.6650852757236771 212 42 202
-0.5726126420219801 0.778791718198824 0.256121498241618 160 94 230
-0.22950118245110263 -0.7636108251970345 0.603512812536279 204 50 6
-0.023842412729251833 0.4831743677846269 0.8751994456529175 239 15 254
0.8179431471714781 0.011589347376139246 -0.5751823145947839 54 200 129
-0.9026643079785142 0.37127495375164093 -0.21760527525404116 99 155 176
-0.2346174150148884 -0.9713653534519201 0.03747023732187893 132 122 4
0.938142507722 0.2532762501103913 0.23609272825543703 157 97 161
-0.7760567258724842 0.4289239678182097 0.46234206823429247 186 68 189
0.8003780032388983 0.5958460854983352 -0.06604918112758762 119 135 203
-0.09562613947231852 -0.016437412157982806 -0.99528159479173 0 254 106
0.3207219130449291 0.38110005138284964 0.8671217938264442 238 16 225
0.26838490849322316 0.13939448642512783 0.9531729738338992 249 5 186
-0.5385483732798751 -0.8292236326348351 0.1495119283451598 146 108 21
0.8168122053382144 0.2569506981146373 0.5165212095828431 193 61 166
0.9148869336953095 -0.04051779999418319 0.40167176455064135 178 76 122
-0.9584008698560129 0.1415338051618971 -0.24786277383994548 95 159 146
-0.5070028001396404 0.032112881717800135 -0.8613459952181484 17 237 136
-0.23052312524300034 -0.9233284181738747 -0.3071216712000804 88 166 4
-0.08787444746727434 -0.903776617808503 0.4188865080006088 180 74 1
-0.5448412169462095 0.6985934817117306 0.4638051267789689 186 68 228
-0.903499227261389 -0.11792634143234415 -0.4120467501806746 74 180 111
-0.7501622098843251 0.661204857376387 0.008049561686046758 128 126 211
-0.9088874420978712 0.3248813332869367 0.26148754631624627 160 94 170
-0.6725314574939241 0.6795635008757525 -0.2930782949291695 90 164 218
0.6881420759614238 -0.7061000159786452 -0.16698278571894454 106 148 37
-0.8146040752553748 0.41548460754247274 0.4047131595001736 179 75 185
-0.2845360333253858 0.9579059416332237 0.03815039610832294 132 122 249
0.11897947771488925 0.9159099510731218 0.38334429095517253 176 78 253
-0.0949042366707078 -0.032771893507653006 -0.9949468271510158 0 254 86
-0.08470293898906081 -0.9010305945081404 -0.42540484234070775 73 181 1
-0.23948005053374216 0.050191539345133256 0.9696030707328243 251 3 154
0.6720606009528638 -0.432515950147046 -0.6010528275578393 50 204 59
-0.1475027510295208 -0.37598040669618377 0.9148123699531481 244 10 9
0.6084657940069838 -0.3744840421653134 0.6996649767474277 216 38 61
-0.7410083813189345 -0.5493196082632311 0.3862053168880806 176 78 52
0.6257361750125439 0.7727466620706053 -0.10638061637069507 113 141 226
0.45340588039466856 -0.6658188420590097 0.5925439875509118 203 51 23
0.4789581027694493 0.8737375853015492 0.08474531150988529 138 116 239
0.8937316088084768 -0.4343111288045251 0.11232833486325244 141 113 72
-0.1878576009783707 -0.37532355306428705 -0.9076572878955198 11 243 14
0.08632586193627678 0.5714139661227254 0.8161090153164929 231 23 253
-0.6078270590821608 -0.12223701722076094 -0.7846045996987927 27 227 102
-0.40594453170570755 0.31158527803956465 0.8591412291860059 237 17 205
-0.547957504495295 -0.10718718114820618 0.8296104395828143 233 21 103
0.4451221367523351 0.7967916982048052 -0.4086432099581958 75 179 238
0.8275719182873105 -0.5600444959454243 0.03840420059702865 132 122 56
-0.002263333261974183 -0.5339028435877444 -0.845542802542524 19 235 1
0.1915488074731673 0.729395952585588 -0.6567271874282121 43 211 250
0.7748119323164796 0.6098984605860132 0.1664041385146846 148 106 206
0.18897755418465773 0.838799018536232 0.5105915104239775 192 62 251
-0.7418227086757934 -0.5663451325415427 -0.3590992338329495 81 173 50
-0.31022211542617373 0.9203834215824145 0.23802646150534823 157 97 248
0.8329404410426611 0.3005068777138439 0.464656688451091 186 68 171
0.9811758523321888 0.10889785816489571 0.1594841787993433 147 107 142
0.4288715127658546 -0.704737859412971 0.5651670328743097 199 55 19
0.5244547812432478 0.8513654036612026 0.011141448734100834 128 126 236
-0.5710909413772132 0.27136760696635276 0.7747352828974834 226 28 182
0.8566582998424952 -0.3851170313066489 0.3432512629379816 171 83 75
-0.2737041052413503 -0.7319329738042556 -0.6239873273008762 47 207 9
0.18717549085890028 0.8925651787214619 0.41023497822059785 179 75 252
-0.941581871964401 -0.3024557318105482 -0.14813544033404025 108 146 89
-0.9028382288524255 0.3717123540259728 0.21613203924241642 155 99 176
0.6432883498594794 0.11535399874449066 -0.7568841086379896 30 224 150
0.6659878465285005 0.5388076384594248 0.5158939009274177 193 61 207
-0.4442907482565917 0.16856700982562814 0.8798811818717596 239 15 173
0.49592864782529134 -0.5089890957467409 0.7035516162138307 217 37 37
-0.2532833412164165 -0.3264442683119524 0.910649048068751 243 11 27
0.2538866600089347 0.15940023462309486 -0.9540089774586034 5 249 195
0.3076911448875851 0.9477563033761635 0.08416738542046298 138 116 248
-0.9811935337816021 0.11839759629144997 -0.1524508394781039 108 146 143
-0.8858770249148249 0.225364286024287 0.4055031877961284 179 75 159
-0.051834558720246636 0.9984166519844194 -0.02184874281280358 124 130 254
-0.8152607948828192 -0.275978101930689 0.509103057918304 192 62 87
-0.42528669144466485 0.6745427222014665 0.603426338507929 204 50 235
0.44240301795349435 -0.8874524754162332 0.12925816640831655 143 111 14
0.4124992803233859 -0.774610356743122 0.4793987264886943 188 66 15
-0.5184825434809759 -0.5300154479752939 0.6710137681248027 213 41 37
0.6896123353720925 0.6602069284790425 0.297593075341005 165 89 215
-0.0938193545716263 0.9752663604805812 0.20013359243946116 153 101 254
0.9895075098208932 0.11189696551417869 0.09139998422742579 139 115 142
-0.14515979200986281 -0.8816329942340366 0.44905667600157173 184 70 2
-0.2756657643871865 0.9564856410591543 0.0956221982203238 139 115 250
-0.4749129690598654 -0.8732399785479411 0.10913116733699191 141 113 16
-0.7355213919419663 -0.0588460999932952 -0.674941048174825 41 213 117
0.8403795952443331 -0.11182847973929776 0.5303362395840665 195 59 111
-0.6771517614734107 -0.2626455179829885 -0.6873738602950397 39 215 82
0.4035817810215603 -0.8488249847098367 -0.3414936183295536 83 171 13
0.44468395189238163 -0.513498821020014 0.7338767905721162 221 33 31
0.09572037745601099 0.30255366836224507 0.9483137071139631 248 6 249
-0.5250598760124794 0.5056585724140609 0.6845593726959947 214 40 216
0.3246250136942603 -0.3297456855971684 -0.8865023312513367 14 240 37
-0.3613257634568888 0.4718195152732587 -0.8042574448953541 24 230 228
0.9579068432674213 0.2596298738092507 0.1225022785389589 143 111 161
-0.2141487536473707 -0.20976823282615176 0.9540113205870626 249 5 39
-0.7728982218771265 -0.3260713330629606 -0.5443398059794267 58 196 78
-0.7550811585620587 -0.40232421092196907 -0.5176752585266113 61 193 68
0.6403495553493989 -0.6444462336149533 0.4179013028734513 180 74 37
-0.24529328366673042 -0.46459681274661396 0.8508707343502189 235 19 15
0.571508785643162 -0.5975760198370667 -0.5623883075316982 55 199 36
-0.7307327373976473 0.1618160204178472 -0.6632082946039439 42 212 155
-0.14326561827369697 -0.10282961970008758 -0.9843277055599882 1 253 53
-0.593160236894904 0.7351805945386541 0.32813172169202476 169 85 226
-0.3709102276474051 -0.4408155031986603 -0.8173783060286479 23 231 30
0.5477975559666515 -0.4749635335283504 0.6887143671328682 215 39 44
-0.6138722717310436 0.16081626035608995 0.7728511916306076 226 28 160
-0.5080829551459258 -0.4008442025593212 -0.7623487626833043 30 224 49
0.11567269673683514 0.9820852999296164 -0.14875580960683044 108 146 254
0.3497305092891042 0.5070724406458166 0.7877601861035366 227 27 232
-0.820768898065299 -0.5658824638203606 -0.07820136257939003 117 137 55
0.18277185459636272 0.08245305884305823 -0.9796917587970357 2 252 180
-0.3667355768745293 -0.9183144194956391 0.1490088708798698 146 108 10
-0.5139284672576784 0.0854493332251937 0.8535666007954759 236 18 148
-0.11401501636121739 -0.9922625391462067 -0.04914905341178066 121 133 1
-0.04091659420899775 0.9077718850497644 0.4174638152361636 180 74 254
-0.9541576723455333 -0.2993039877589919 -0.0005091323198751496 127 127 89
0.5592060315325014 0.6089849928119513 0.5625174600201301 199 55 221
-0.9227873250640694 -0.3274446748304614 0.20308505022840295 153 101 85
0.6699445397748596 -0.3738413534994102 0.6414179261913255 209 45 66
0.2763583387561786 -0.1300791171582089 0.9522108442352808 248 6 73
-0.5791803901054917 0.005581399662157062 -0.8151803013414036 23 231 129
0.28593728350496495 -0.9199489190005725 0.268204877531113 161 93 6
-0.996914321797681 0.07755101239035811 -0.012152179718062595 125 129 137
-0.9962878495213939 -0.0856444486792298 0.008691910403768155 128 126 117
-0.12627947382540494 -0.864161950018475 -0.4871115053359403 65 189 2
0.8008205479321769 0.598772277913427 0.012578124342431884 129 125 204
0.9787479444122364 0.20281026811793387 -0.03033902527692156 123 131 153
-0.1964551821595681 -0.8034630203796503 0.5620075945083487 199 55 4
0.12876707908654103 0.08890054622771876 -0.9876819995443542 1 253 200
0.874502518640842 -0.4730961889317638 0.10688938632560596 141 113 67
0.3399373324438604 0.3754800457474823 0.8622397260950234 237 17 222
0.3193319819429475 0.08023490060530315 -0.9442401421424775 7 247 158
0.9958380864305832 -0.034193021485441594 -0.0844827964497532 116 138 123
-0.4284856783214237 -0.8914056703229228 0.1476345298010262 146 108 13
0.3157842539718193 -0.8741929736655667 0.368872538605431 174 80 8
0.1860804978663023 -0.42492157292438726 0.8858982476432007 240 14 11
0.048261139876971164 0.25020708804432773 -0.9669887669824058 4 250 252
0.8104289710858009 -0.37015968583809417 0.45407784553427977 185 69 75
-0.23738383333758137 0.013441627367475168 -0.9713229320486927 3 251 135
-0.9333743532960297 -0.2956819435600792 0.20343181870531613 153 101 89
-0.2981406810337547 -0.15093220699218513 0.9425134498802641 247 7 70
0.25323206829332123 0.6215946763227835 -0.7412783404059913 32 222 245
-0.31600641124140283 0.040317141022096145 -0.9479000349162003 6 248 144
0.919287320977833 0.3932783923267743 0.015586135450027516 129 125 177
0.991021583393038 0.040198798349638264 0.12751579455267725 143 111 133
-0.8866119576987472 -0.4479706649909471 0.11507180268494821 142 112 70
0.25555955184398055 -0.8898544682013855 -0.37795282891299165 79 175 5
0.6140173994800853 -0.13154141820834953 0.778254128438423 226 28 101
0.9272848493882706 0.1886285178002891 0.3233606196917589 168 86 153
0.7477857850330157 0.14761216870647678 0.64732300079043 210 44 152
0.12601989159509727 0.9906358802910596 -0.05253132020344875 120 134 253
-0.1091536562335304 0.10168476579860455 -0.9888102384863009 1 253 214
0.5920191710069291 -0.108158566096758 -0.7986332235389169 25 229 105
-0.7615680250727693 0.027589453078245528 -0.6474974635205957 44 210 132
-0.06096833991563065 -0.949426994167294 -0.3080117599611891 88 166 1
0.3870361021754928 -0.6667828812879653 -0.6368701946504647 46 208 18
-0.516234999981884 0.4332925584170416 0.7387550227335979 221 33 209
0.1608351763329721 -0.8593824126289795 0.48538017565402924 189 65 3
0.30931381015896553 -0.44587732707310324 -0.8399514129085612 20 234 23
-0.5805596574722447 0.153063350501178 0.799701253499745 229 25 160
-0.14104487555459377 -0.9899644255406541 0.008762376604087851 128 126 2
-0.9024515410679347 0.429874319456194 -0.028094225317381483 123 131 182
0.8301445249434397 -0.3629458632897639 -0.42323795674216047 73 181 77
-0.09994643503833744 -0.035897981562383115 0.9943450331966637 254 0 85
0.5400584808414937 -0.7975531951334607 0.26878567335999515 161 93 22
0.876837002511062 -0.2850832976424019 -0.3871490467930272 78 176 88
0.73190933519566 0.17705116742882476 -0.6579981832539792 43 211 157
-0.5193014466439072 -0.8144504177786135 -0.2588368684978768 94 160 20
-0.9533744204541148 -0.30066618254322847 0.026020397742211543 130 124 89
0.546657164499117 0.7155331716483321 -0.43494623204789784 72 182 228
0.8053920986886008 0.21047539910935933 -0.5541152170259602 56 198 160
0.8066828626032428 -0.26109471277104884 -0.5301813936241455 59 195 88
-0.9821183705653199 -0.09311213021949752 -0.16362651803454176 106 148 116
0.3318692020077273 -0.7974759910642233 0.5038798234052333 191 63 10
-0.7686874327515811 -0.6393038288145612 -0.020254510431646278 124 130 46
0.5521383979279276 0.24207364672005766 0.7978367872549086 229 25 178
0.5712813017376539 -0.29755267405091423 -0.764918348877893 29 225 69
-0.2265538228366337 0.10037801353000533 0.9688124791505719 251 3 179
-0.49136820855635766 0.44113392529831535 -0.7509714665491733 31 223 212
0.9936346275297921 0.10727794389642943 0.034375423300461616 131 123 141
0.798522738431044 -0.280429636080651 -0.532654348913308 59 195 85
-0.7898139996096827 0.43779705549923514 0.42956674011933904 182 72 189
-0.9943461292378656 -0.08583233873882581 0.06251867637992126 135 119 117
-0.5655818501837677 -0.03340464830373106 -0.82401535192884 22 232 120
-0.8235051736276285 0.5451761203516216 0.15691471188796768 147 107 198
0.2459924517915763 0.9572382856482896 0.1522582613544916 146 108 251
0.2865017339469264 -0.46429455924155816 -0.8380616437375545 20 234 19
0.6374804434104213 -0.5872301144445217 -0.4987779836347297 63 191 41
0.6762299086619646 0.11745325308997594 -0.7272673813458246 34 220 149
-0.16146917609927214 0.8849665724556074 -0.43676294577951147 71 183 252
-0.7869358230644211 -0.5658703319179473 0.24601377569761018 158 96 53
-0.3199039050350519 0.593148474444895 -0.7388074030537446 33 221 239
-0.8528169657540602 0.47132259289999934 0.22485158737278166 156 98 189
-0.36442451249256785 0.9299704574647879 0.04847394080624268 133 121 246
0.16367386603321954 0.6464411333709071 0.7452011316845115 222 32 251
0.731329783649884 -0.450198593942899 -0.5123260422411207 62 192 61
0.9518324051905283 0.3027128095220951 -0.04878552429208627 121 133 166
-0.2428150471674692 -0.6586769729657928 -0.7121695712073635 36 218 8
-0.7045476985049532 -0.08111189473906444 0.7050059581756827 217 37 113
0.14651847402498405 -0.945355579325094 0.29126476856685946 164 90 2
0.029342409241231947 0.95240577787604 -0.3034176285060828 88 166 254
-0.1504392658921548 -0.6909599868690067 -0.7070659967950741 37 217 3
-0.3060087702516194 0.9505844436526155 0.05241992001843343 134 120 248
-0.017929422234535874 0.960584554039567 0.2774091749725338 162 92 254
-0.33256705526870506 -0.47238849680953404 -0.8162403211260338 23 231 24
-0.9640070263229218 -0.15695634532408892 0.21460465713153365 154 100 107
-0.6575553957248619 0.21194300840561237 -0.7229806793691647 35 219 166
-0.49514360053703915 -0.5730389876282026 0.6530383859355142 210 44 31
0.635171554708581 0.730183384287072 0.2517723602784119 159 95 223
0.8061904318717019 0.49741888809287055 0.3203614167264388 168 86 194
0.6670588153264192 -0.4011208082776338 -0.6278014288467428 47 207 62
-0.028769543063023637 0.8951093115644649 0.4449175583661926 184 70 254
-0.3436316348400957 -0.8094310520239139 0.47617084282490785 188 66 11
-0.0632898131644469 0.06413430612171835 -0.9959323221624525 0 254 218
0.47089947183287634 -0.12082275183639832 0.8738738753768751 238 16 96
0.6827437776781711 0.02267793409688884 -0.7303058573959524 34 220 132
-0.7377893583802541 0.6636563865162575 -0.12339798741080354 111 143 212
-0.16435105799131594 0.16400034894832058 0.9726729230743314 251 3 217
0.851931147985968 -0.15889963349942066 0.49896315050819195 191 63 104
-0.34635717681662487 0.5492793806218613 0.7604793673014947 224 30 235
0.287896969829456 0.2545178231558737 0.9232204571276639 245 9 212
-0.06874521373597464 0.7838131534969154 0.617179905694941 206 48 254
0.9817042945886181 0.17282265680346096 0.07993126598307398 137 117 150
-0.8870774239470256 -0.4170248938081385 0.19794919011660506 152 102 73
0.2841525391218866 -0.49747737510881584 0.819617957200443 232 22 17
0.9995238703665557 -0.021329986395215543 -0.022294937717805663 124 130 125
-0.8647558724601172 0.07177072063896965 0.49703746810950244 190 64 138
-0.39307027264181543 0.863164790182753 -0.31692634121204355 87 167 243
-0.7777118083117216 -0.4353911761719646 0.45343011250258325 185 69 65
-0.16995780812180192 -0.3645258862774292 -0.9155518672866587 10 244 12
-0.7198294541941851 -0.23019698320450305 -0.6548701442255918 44 210 89
-0.48741077096711 0.8472650125220735 0.21112256843174748 154 100 238
-0.7627467369111196 0.6466492761769217 0.007882192036637203 128 126 210
-0.3964069241642513 0.7485713175244948 -0.5315096735284124 59 195 240
0.8587111668686594 0.5006017119376152 0.10960409618346612 141 113 191
0.2545653096866192 0.9202200868148541 0.297307071773643 165 89 250
0.8146448382101577 0.08240288437937701 0.5740762599372187 200 54 140
-0.21190407809985187 0.417181526398005 -0.8837738600552081 14 240 241
0.5507320445608005 0.8330541061411489 -0.052106346400911274 120 134 233
-0.4228911445014469 0.25543346833254105 0.8694347722272586 238 16 193
0.5828704014790987 0.7969013758585152 -0.15877749284580522 107 147 230
0.402475351484387 0.905350020987831 -0.13548037106847977 110 144 244
0.5083733158190812 -0.14026131187482105 -0.8496371791266357 19 235 94
0.7604242690638205 0.546757560528793 -0.3504441482224485 82 172 202
-0.08577827073206133 -0.1795454710345108 0.980002812292502 252 2 13
-0.02719837060420343 0.1398813420782543 -0.9897946548526431 1 253 252
0.15873640882730644 -0.9740237650385472 -0.1614944508419507 106 148 2
-0.8816944302654105 -0.26418184632762276 0.3909256754293349 177 77 91
-0.738264816864906 0.5498938235250209 -0.3906172589997272 77 177 203
0.8236956370897575 0.5029729555849944 0.2618085242871091 160 94 194
-0.7594013802242892 0.02404261835192231 -0.6501780496265837 44 210 132
-0.9429385407862609 0.15966349168819607 0.29218911294196115 164 90 149
0.11405916012761032 -0.654555175061176 0.7473607099598008 222 32 2
0.4924135317696917 -0.736207821464517 0.4642488097395283 186 68 22
-0.054978002225679785 0.2973196676132128 -0.95319380742934 5 249 252
0.656836926019101 -0.3242606518880725 0.68074979416442 214 40 71
0.25167451298552085 -0.9350196494604777 -0.24979630629035832 95 159 5
-0.3574521974481624 0.6258206384209756 0.6932362188070114 215 39 238
0.43317864312855964 -0.563996523968676 0.7030392479005356 217 37 27
0.38142776667109984 -0.4044086053939166 -0.83124397062213 21 233 35
0.3638703003966561 0.3950723234364347 -0.843514234464235 19 235 221
0.8748243136565761 -0.42545733582825473 -0.23166457568049603 97 157 72
-0.14662753093620673 -0.3257409454037126 -0.93401991609336 8 246 12
0.9645923038152486 -0.011773653604289433 0.26348257722513146 161 93 126
0.7311846949706041 -0.5254427425593278 0.43506191068913 182 72 53
0.4616246038430491 -0.8582297986627874 -0.2243754394179085 98 156 16
-0.6988958996721154 -0.6441726064068826 0.3107831632770153 167 87 41
0.018078659170800142 0.024300074815184893 -0.9995412289878605 0 254 229
0.32422515060563967 -0.7555273191216975 -0.5692596259840768 54 200 11
0.8972482608397354 -0.33039426311865466 0.2928910878097035 164 90 84
-0.14538386116335605 0.9634078951263229 -0.2251860575646325 98 156 253
0.4635208841290063 -0.8802560688191217 -0.10147730427721235 114 140 15
0.5994301374292952 0.19181389126341777 0.777104202446417 226 28 166
0.6588051112090151 0.07737156641488405 0.7483244391007049 222 32 142
0.37408904674717247 0.9207996648931269 0.11038732824240682 141 113 245
0.6427953581578153 0.2999829606042093 0.70485768129311 217 37 181
0.91358825384185 0.3801594307815616 -0.14434441322766345 109 145 176
0.05939415603930792 -0.9126943686148508 0.40430350447048724 179 75 1
0.9203648576102598 0.09740153620763056 0.3787366758322199 175 79 141
0.7966142390544357 -0.5517580088836 -0.24691871895125184 96 158 55
-0.8084483260408095 0.20639993071357485 -0.5511899606517199 57 197 159
0.7095774381124442 0.3313289033657977 0.6218689710189746 206 48 181
0.5097830718589509 0.22971775720953547 -0.8290663252530961 21 233 180
0.4558818878802197 0.8728254895551726 -0.17420496286139509 105 149 240
-0.4552093760939187 0.7363185326137992 0.5006190592113398 191 63 236
-0.3593895144774468 -0.5876705168739826 0.7249017453977684 219 35 19
-0.3247826205664595 0.6096228946068953 0.7231017741294052 219 35 240
0.9133892011165732 -0.40671152129686383 0.017490160891734607 129 125 76
-0.03613730308589156 0.9549953826563397 0.29441113163525223 165 89 254
-0.830721159458077 0.5525191606604488 -0.06800685503463022 118 136 198
0.350433048274923 0.5516853318142723 -0.7568619248830806 31 223 235
-0.11278581140986037 -0.992473066570041 0.04771344546014866 133 121 1
-0.7594165394092613 0.3558523190077259 -0.5446610383793624 58 196 181
-0.02630261089140164 -0.9265381843749618 -0.3752801161205386 79 175 1
-0.9199862167112224 -0.15299571119889918 0.3608568600097759 173 81 107
0.15549323625512973 0.1031828726237593 0.9824332792999306 252 2 198
-0.46273500411577195 -0.09831177964844105 0.8810284387852261 239 15 101
0.45205058614039534 0.1832492675074379 -0.8729661926604675 16 238 175
-0.4548382140584678 0.31209640372287073 0.8340971369183294 233 21 199
-0.31503931995744033 -0.9490158909917473 0.010911715075709871 128 126 7
